# .PCD v0.7 - Point Cloud Data file format
VERSION 0.7
FIELDS x y z rgb
SIZE 4 4 4 4
TYPE F F F F
COUNT 1 1 1 1
WIDTH 117
HEIGHT 1
VIEWPOINT 0 0 0 1 0 0 0
POINTS 117
DATA ascii
0.056895241 0.41435432 1.2360001 1.0584785e-38
0.063094862 0.41529605 1.2360001 1.0955043e-38
0.057007354 0.42393962 1.2360001 8.8377666e-39
0.064726099 0.42483822 1.2356801 1.2069346e-38
0.071805716 0.4249486 1.2360001 1.3453389e-38
0.077319056 0.39849049 1.2490001 1.786536e-38
0.08564572 0.39849049 1.2490001 1.6392038e-38
0.045915622 0.40753087 1.2490001 1.1040063e-38
0.054946098 0.40709713 1.2452668 1.3074106e-38
0.064838298 0.40754965 1.2449476 1.5564809e-38
0.074940011 0.40411377 1.2490002 1.7313646e-38
0.083096743 0.40392834 1.2490001 1.6208035e-38
0.039254289 0.41633338 1.2490001 1.1047564e-38
0.045117479 0.41439199 1.2467502 1.0954305e-38
0.052604362 0.41512498 1.2412499 1.1229434e-38
0.066910401 0.41444984 1.2404544 1.3903881e-38
0.075826451 0.41544968 1.2483337 1.68545e-38
0.082077146 0.41633338 1.2490001 1.5935077e-38
0.039254289 0.42584956 1.2490001 7.0886098e-39
0.045135476 0.42525458 1.2472502 7.8258007e-39
0.052925933 0.42565396 1.241111 7.9172747e-39
0.075906664 0.42471528 1.24525 1.4465006e-38
0.082077146 0.42703909 1.2490001 1.2991696e-38
0.068074293 0.39769718 1.2540001 1.8050484e-38
0.03806686 0.40822384 1.2570001 8.923896e-39
0.045473337 0.40626597 1.2565001 1.3537957e-38
0.054891709 0.40441501 1.2568573 1.6851947e-38
0.064553335 0.40347266 1.25525 1.7497672e-38
0.074523434 0.40390745 1.2540001 1.7405838e-38
0.085912481 0.4054448 1.2544546 1.6576806e-38
0.092082225 0.40540415 1.2556667 1.7037766e-38
0.02794802 0.41525441 1.2577499 1.0955742e-38
0.034966789 0.41467682 1.25525 1.0955015e-38
0.077628575 0.41202861 1.2540001 1.6302044e-38
0.086617358 0.41506422 1.255 1.59347e-38
0.092051677 0.41363123 1.2552501 1.6763347e-38
0.027862977 0.42365324 1.2583749 7.2719207e-39
0.034645006 0.42530739 1.2544167 7.1807984e-39
0.086551443 0.42540658 1.2547144 1.3177156e-38
0.092326671 0.42446288 1.2590001 1.5752463e-38
0.06279619 0.39972192 1.268 1.7498028e-38
0.016906668 0.40938288 1.268 1.0861045e-38
0.024542755 0.40759337 1.2674444 9.5703206e-39
0.034782052 0.40634754 1.2660769 1.3719464e-38
0.045268577 0.40467188 1.265143 1.721568e-38
0.055331431 0.40295717 1.263 1.7032375e-38
0.063833974 0.40228289 1.2646668 1.7773536e-38
0.015699048 0.41596991 1.2679999 1.0678453e-38
0.02267546 0.4141854 1.2633849 1.0588025e-38
0.031274289 0.41017431 1.263 8.9242393e-39
0.092620008 0.42581147 1.263 1.5753899e-38
0.046620637 0.39769432 1.2770002 1.7220351e-38
0.056336738 0.39784291 1.274143 1.7220719e-38
0.061782863 0.39856002 1.2720001 1.7312562e-38
0.0060767862 0.40783137 1.2763751 1.0308586e-38
0.014545081 0.40609285 1.2728336 1.0489743e-38
0.0237366 0.40489715 1.2734288 1.464034e-38
0.035167143 0.40349692 1.2732501 1.6665755e-38
0.045691799 0.40207115 1.2754618 1.6940901e-38
0.05534466 0.40196458 1.2725558 1.7312919e-38
-0.0026054424 0.41691869 1.2762858 8.1935084e-39
0.0048492863 0.41491753 1.2738751 9.9444701e-39
0.012114286 0.4130972 1.2720002 1.1692583e-38
0.0048457147 0.42400002 1.2720001 6.8123789e-39
0.010902857 0.42400002 1.2720001 7.1808012e-39
0.025740003 0.39660615 1.2870002 1.6103594e-38
0.034182496 0.396936 1.2854614 1.6566365e-38
0.043621302 0.39592162 1.2819999 1.6573554e-38
0.050873023 0.39599559 1.2820001 1.6758291e-38
-0.012257144 0.40693718 1.2870001 1.1599311e-38
-0.0044092382 0.40719494 1.2854999 1.0860294e-38
0.0036628575 0.40596667 1.2820001 1.095146e-38
0.015183145 0.40327746 1.2854999 1.6022909e-38
0.024490081 0.40286601 1.2857499 1.6572127e-38
0.032982726 0.40226468 1.2827144 1.6472025e-38
0.040291432 0.40169337 1.2820001 1.6294457e-38
-0.01329099 0.4146373 1.2866154 9.4835088e-39
-0.0061159865 0.41430226 1.2837857 1.0219269e-38
-0.033325717 0.39867431 1.296 1.2788461e-38
-0.023451431 0.39867431 1.296 1.3348188e-38
0.016833121 0.39699379 1.2932223 1.601752e-38
0.02254127 0.39549685 1.291 1.6200089e-38
-0.032884527 0.4052746 1.2947497 1.2794968e-38
-0.024118936 0.40535229 1.2927647 1.1781896e-38
-0.015240735 0.40487203 1.292154 1.1963779e-38
-0.0049276194 0.40406239 1.2934999 1.1416757e-38
0.0053364024 0.40356499 1.2932222 1.5563013e-38
0.011899684 0.4017505 1.2926667 1.6755778e-38
-0.031474289 0.41472003 1.296 7.4523421e-39
-0.024551051 0.4153187 1.2930001 8.1005855e-39
-0.018442858 0.41557908 1.291 8.8377932e-39
-0.03109524 0.39801908 1.3060001 1.3720186e-38
-0.024018414 0.39792415 1.3043334 1.6114024e-38
-0.014925716 0.39926288 1.3060001 1.7682397e-38
0.0087066684 0.39677525 1.3060001 1.6110783e-38
0.012836827 0.39585114 1.3043336 1.5643716e-38
-0.030976193 0.40021241 1.3010001 1.1220834e-38
-0.026020003 0.40120363 1.3010001 1.1506069e-38
-0.015408438 0.40149418 1.3017145 1.3723416e-38
-0.0049657146 0.40222052 1.3035001 1.6762264e-38
0.0044312933 0.4019337 1.3031431 1.7311113e-38
0.012390478 0.40021241 1.3010001 1.5639035e-38
-0.035565399 0.41520131 1.3026669 1.1595013e-38
-0.015792001 0.38878402 1.3160001 1.5929997e-38
-0.024662081 0.39520586 1.3128182 1.6023269e-38
-0.01492597 0.39549646 1.3133335 1.6291932e-38
-0.0050038099 0.39654881 1.3135 1.6107909e-38
0.0042494289 0.39630225 1.3135 1.5554005e-38
0.013734287 0.3982943 1.3110001 1.5278172e-38
-0.0049942862 0.40079147 1.3110001 1.6761172e-38
0.0037457149 0.4007915 1.3110001 1.6388061e-38
-0.038779527 0.41782051 1.3135002 1.4273012e-38
-0.013839048 0.39252573 1.3210001 1.5647306e-38
-0.0050419052 0.3932662 1.3235 1.5833497e-38
0.002098413 0.39343876 1.3226669 1.6205156e-38
-0.011408572 0.39169431 1.3310001 1.5928201e-38
-0.0050704768 0.39169431 1.3310001 1.6114386e-38
