# .PCD v0.7 - Point Cloud Data file format
VERSION 0.7
FIELDS x y z rgb
SIZE 4 4 4 4
TYPE F F F F
COUNT 1 1 1 1
WIDTH 193
HEIGHT 1
VIEWPOINT 0 0 0 1 0 0 0
POINTS 193
DATA ascii
0.067761414 0.34509432 1.4670001 1.2994912e-38
0.074886881 0.34509426 1.4670001 1.1243939e-38
0.06845998 0.35487428 1.4670004 1.2894108e-38
0.077960573 0.35403606 1.4670001 8.6444505e-39
0.06846004 0.36465427 1.4670002 1.2618882e-38
0.072185688 0.36279145 1.4670004 1.3459826e-38
0.057282865 0.37303716 1.4670002 8.0122897e-39
0.065106891 0.37247831 1.4670002 1.142461e-38
0.071254283 0.37303716 1.4670001 1.4088538e-38
0.054711457 0.32967144 1.473 6.7248033e-39
0.065934293 0.32967144 1.4730002 7.2880342e-39
0.074351422 0.32967144 1.4730002 7.9266381e-39
0.099602841 0.32967144 1.473 4.0476226e-39
0.10240854 0.32967147 1.473 4.5121979e-39
0.055513047 0.33528292 1.4730003 4.6098796e-40
0.065934293 0.33528286 1.473 5.5282486e-40
0.075598419 0.33559459 1.4730003 4.6100197e-40
0.082768582 0.33528292 1.473 5.5500528e-40
0.095674895 0.33359948 1.473 2.0272389e-39
0.10381144 0.33528292 1.473 4.9760403e-39
0.056815706 0.34299856 1.4730002 6.8944851e-39
0.063362412 0.34463525 1.4729999 9.1201577e-39
0.076689541 0.34276479 1.4730002 8.0059054e-39
0.082768612 0.34370005 1.4730002 1.2357807e-38
0.064531475 0.35492289 1.473 1.2992045e-38
0.074702136 0.3552736 1.473 1.0417754e-38
0.082768582 0.35772863 1.473 5.3607345e-39
0.056581885 0.36801618 1.473 9.9477491e-39
0.063689761 0.36530396 1.4729999 1.059782e-38
0.075754248 0.36446226 1.473 1.3357917e-38
0.082768552 0.36474293 1.4730002 1.024308e-38
0.054711483 0.37496376 1.4730002 8.3800114e-39
0.063930258 0.37496376 1.4730002 1.0780349e-38
0.073229127 0.37456289 1.473 1.3717646e-38
0.099602871 0.37456289 1.4730002 5.8894094e-39
0.10240858 0.37316003 1.4730002 1.0865399e-38
0.056394868 0.38241887 1.4730002 4.9831967e-39
0.064250849 0.38428938 1.4729999 7.5546172e-39
0.071545742 0.38578576 1.473 6.5447911e-39
0.06465897 0.39522323 1.4729999 4.2312614e-39
0.071545713 0.39607337 1.473 5.6105931e-39
0.036796175 0.31842858 1.4860001 2.5782575e-39
0.042457126 0.31842858 1.4860001 1.7492128e-39
0.026889499 0.32550472 1.4860001 4.3263451e-39
0.035947047 0.32578787 1.4860001 6.0783885e-39
0.044991285 0.32569909 1.4856001 7.2761932e-39
0.054634057 0.32678264 1.4817144 8.8420448e-39
0.064097524 0.32838559 1.4824001 1.2154242e-38
0.074780524 0.32804427 1.4815 1.3169116e-38
0.085763477 0.32918438 1.4860002 1.40939e-38
0.094563834 0.32744953 1.4820001 1.0873581e-38
0.10007618 0.32700962 1.48 6.4654678e-39
0.037079245 0.33484533 1.4860001 3.2192856e-39
0.045254257 0.3351858 1.4850001 2.7626095e-39
0.053561956 0.33405721 1.4800001 3.7760257e-39
0.062488906 0.33405721 1.48 3.6870713e-39
0.074704759 0.33335245 1.4800001 4.3338896e-39
0.085724734 0.33482599 1.48 3.4083516e-39
0.094751351 0.33562329 1.48 2.3023936e-39
0.10148571 0.33969527 1.4800001 2.2127259e-39
0.036796208 0.34248769 1.4860002 2.7572257e-39
0.045287639 0.34531814 1.4860001 8.4808727e-39
0.053280018 0.3458972 1.4799999 9.7672969e-39
0.087390475 0.3453334 1.4800001 1.3927285e-38
0.094610795 0.34595811 1.4826665 1.1429711e-38
0.10169142 0.3446238 1.4830002 9.1972417e-39
0.045287602 0.35522479 1.4860002 7.4653195e-39
0.055246942 0.35494709 1.4805455 6.3582825e-39
0.060609549 0.35660955 1.48 1.0784704e-38
0.086123854 0.35492802 1.4823999 1.0887756e-38
0.094725236 0.3562758 1.4845002 1.1056256e-38
0.10048188 0.35805523 1.4860001 9.676539e-39
0.04764637 0.36465967 1.4859999 8.10454e-39
0.05439195 0.36445209 1.4813333 9.859508e-39
0.060609542 0.36365718 1.4800001 6.9200308e-39
0.087643288 0.36446935 1.4808574 1.4567998e-38
0.09452571 0.36539429 1.4813333 1.1240287e-38
0.10157742 0.36531189 1.4842858 1.0494106e-38
0.047739327 0.37519974 1.48525 1.0868608e-38
0.052152362 0.37211433 1.48 8.7514242e-39
0.07752385 0.37493336 1.4800001 1.2884696e-38
0.084732287 0.37391779 1.4805454 1.4279112e-38
0.094728164 0.37468767 1.4805454 1.2612028e-38
0.10101589 0.3716445 1.48 8.2785518e-39
0.04695069 0.38552552 1.4840001 6.8184815e-39
0.052857123 0.38550478 1.48 4.5136258e-39
0.069066696 0.38761911 1.4800001 6.5484177e-39
0.075096399 0.38499355 1.48075 1.0136784e-38
0.084631227 0.38503915 1.4860002 8.7578534e-39
0.093405709 0.38635999 1.4859999 9.761588e-39
0.1014254 0.38447306 1.4860001 5.9902469e-39
0.047425859 0.39376387 1.4834287 1.4729861e-39
0.055246919 0.39442721 1.4805454 2.2073127e-39
0.066247635 0.39607623 1.4800001 1.3793373e-39
0.075644515 0.39482331 1.48 2.3906194e-39
0.084887169 0.39471951 1.4855002 2.3939082e-39
0.093122683 0.39428529 1.4860001 4.6026433e-39
0.029839989 0.32539815 1.4920001 5.5205526e-39
0.032681908 0.32539806 1.492 4.7833617e-39
0.075310461 0.32823998 1.4920001 8.1881008e-39
0.085390501 0.32732797 1.4943336 5.8975846e-39
0.093782857 0.32539809 1.4919999 1.1882389e-38
-0.0042828638 0.33834574 1.4990002 5.602338e-39
0.0071381014 0.33834571 1.4990003 1.1887094e-38
0.012848553 0.33834571 1.4990001 1.0593504e-38
0.027629642 0.33487111 1.4920001 4.9681019e-39
0.033392366 0.33747622 1.4920001 3.219643e-39
-0.0021414179 0.34334236 1.4990001 8.5680405e-39
0.006479172 0.3451544 1.4990004 1.2346981e-38
0.012848585 0.34548381 1.4990001 1.1235598e-38
0.026173051 0.34405619 1.4990004 8.6580599e-39
0.034417715 0.34675491 1.4934001 2.025057e-39
0.029980004 0.35262191 1.4990002 8.8330695e-39
0.035823993 0.35530335 1.4939094 2.0250767e-39
0.02998 0.36404285 1.4990001 8.5539756e-39
0.0353176 0.36547175 1.4955003 1.4722644e-39
0.042344354 0.36575314 1.4920001 9.8663547e-39
0.029028267 0.37736735 1.4990001 2.1143758e-39
0.035593446 0.37448826 1.4951115 1.6566403e-39
0.042425603 0.37533444 1.492 8.2914368e-39
0.028552413 0.38974005 1.4990002 7.357264e-39
0.036583748 0.38532785 1.4966667 2.3924116e-39
0.042344417 0.38450974 1.4920001 6.6326455e-39
0.08952003 0.38507816 1.492 1.3649234e-38
0.095203809 0.38621488 1.4920001 1.0138303e-38
0.10230859 0.38507816 1.4920001 7.0865485e-39
0.029979998 0.39259523 1.4990001 6.4406858e-39
0.035938229 0.39394107 1.4946252 3.2182038e-39
0.097335234 0.39502475 1.4920001 4.7913141e-39
0.10088764 0.39218292 1.492 1.5684902e-39
-0.0043028612 0.32845145 1.506 1.0786877e-38
0.08175429 0.32845145 1.506 2.7589465e-40
-0.0023905039 0.33514482 1.5059999 4.6937207e-39
0.002868589 0.33610103 1.506 6.5458449e-39
0.014820931 0.33801338 1.506 1.0317975e-38
0.021514293 0.33992574 1.506 9.0286543e-39
0.0014342945 0.3427943 1.506 8.9437328e-39
0.016596705 0.34525311 1.506 1.0041382e-38
0.021514295 0.34709719 1.5059999 1.0321537e-38
0.027251448 0.35426864 1.506 1.6939784e-38
0.030120011 0.35426861 1.506 8.7340593e-39
0.026295241 0.36526486 1.506 1.6760093e-38
0.030120011 0.36383051 1.506 8.455683e-39
0.027251478 0.37434858 1.506 1.1318784e-38
0.030120041 0.37291434 1.5059999 7.3550919e-39
0.026104031 0.38639662 1.5060002 2.3902368e-39
0.031554308 0.38582292 1.506 2.7597396e-39
0.039059989 0.31971329 1.5190001 1.7488541e-39
0.041953355 0.31971329 1.5190001 1.6566473e-39
-0.0024000108 0.32783997 1.5120002 1.078111e-38
0.0036133509 0.32835668 1.5155002 6.9128688e-39
0.01012668 0.32839337 1.5190001 4.7995902e-39
0.039060023 0.32260665 1.5190003 2.1201534e-39
0.041953351 0.32260668 1.5190002 1.8421231e-39
0.085353337 0.32839334 1.5190002 1.0134611e-39
0.096605204 0.32614303 1.5190003 4.7030785e-39
0.10271333 0.32550004 1.5190003 7.4627733e-39
-0.0062399823 0.33648002 1.5120001 8.837122e-39
0.0057688933 0.3331489 1.5143335 3.6874553e-39
0.013928918 0.33505452 1.5131668 7.6453891e-39
0.08627139 0.30819526 1.5250001 4.0533777e-39
0.091500029 0.30790478 1.5250001 4.0547986e-39
0.079880983 0.31226197 1.5250001 2.4817374e-39
0.085690521 0.31419849 1.5250001 2.117631e-39
0.094041698 0.31552982 1.5250001 1.9343174e-39
0.10118257 0.31710318 1.5250002 2.5796952e-39
0.086416654 0.32823813 1.5250002 1.6573788e-39
0.093823805 0.32330006 1.5250001 9.2196471e-40
0.1016667 0.3209762 1.5250001 1.7520967e-39
0.053058885 0.3157149 1.539 2.6682937e-39
0.065957151 0.3165943 1.5390002 1.8395966e-39
0.075128429 0.31602478 1.5348001 1.7477541e-39
0.08462479 0.31734288 1.5320002 1.3818611e-39
0.04763573 0.32612142 1.539 1.564809e-39
0.053132143 0.32612145 1.539 1.564809e-39
0.067422837 0.32099149 1.5390002 1.1971055e-39
0.075850725 0.32428929 1.539 1.3800562e-39
0.084151171 0.32523003 1.5340999 1.1967439e-39
0.091920018 0.32244951 1.5320002 1.1041952e-39
0.055697173 0.33418283 1.5390003 1.7506352e-39
0.064979993 0.33760285 1.539 6.2545345e-39
0.074751459 0.33516002 1.5390002 3.4072656e-39
0.080614291 0.33418286 1.5390002 4.6494943e-40
0.047607001 0.31852505 1.5460002 2.211682e-39
0.057422869 0.31656197 1.5460002 2.4853317e-39
0.060367636 0.31656194 1.5460002 2.3009461e-39
0.046625428 0.32441461 1.5460002 1.3800576e-39
0.05668667 0.32539621 1.5460001 1.3807807e-39
0.064195834 0.32598516 1.5460002 1.1967467e-39
0.072146676 0.32686859 1.546 1.1049028e-39
0.054478101 0.33423051 1.546 2.301295e-39
0.065186344 0.3339628 1.5460001 2.0290115e-39
0.073128276 0.33226734 1.5460002 1.7509841e-39
