# .PCD v0.7 - Point Cloud Data file format
VERSION 0.7
FIELDS x y z rgb
SIZE 4 4 4 4
TYPE F F F F
COUNT 1 1 1 1
WIDTH 242
HEIGHT 1
VIEWPOINT 0 0 0 1 0 0 0
POINTS 242
DATA ascii
-0.014034092 -0.0072535276 0.074100316 9.3226439e-39
-0.039640874 0.004203558 0.011144504 9.3211823e-39
-0.041733354 0.0061153173 0.0057825297 9.8714863e-39
-0.022602916 -0.0099918842 -0.023461223 1.6881944e-38
-0.017301649 -0.014389753 -0.022649065 1.4116103e-38
-0.011637121 -0.017862558 -0.025077716 1.5500089e-38
-0.044770151 0.0050312281 -0.030058384 8.8616728e-39
-0.035723984 -0.0014299154 -0.031039581 8.8620371e-39
-0.024581403 -0.0087618828 -0.025283486 1.6694686e-38
-0.018266648 -0.014647961 -0.029571518 1.2454075e-38
-0.01204583 -0.017973185 -0.029509485 1.1719756e-38
-0.045819312 0.0052046776 -0.036346093 9.137175e-39
-0.035975158 -0.0018414259 -0.037579104 9.1386212e-39
-0.02863434 -0.0069561005 -0.03694655 9.5066862e-39
-0.020978123 -0.012298822 -0.036384061 9.5985217e-39
-0.046199948 0.004758358 -0.044292524 9.1364534e-39
-0.040694535 0.0003631115 -0.050036594 9.3204817e-39
-0.017374754 -0.015836 -0.04748477 8.7705589e-39
-0.039476275 -0.0033365488 -0.054354951 9.0431745e-39
0.0020589828 -0.004019022 0.086108983 1.0786904e-38
-0.02129513 0.0068155527 0.078194693 1.0976718e-38
-0.015884012 0.0021193027 0.079726741 1.0515019e-38
-0.0078395009 -0.0031607151 0.078870684 9.5955944e-39
0.00118801 -0.0065670013 0.077045664 9.3172027e-39
0.009385407 -0.014596105 0.073624238 9.7669872e-39
-0.023043931 0.006760478 0.070701778 9.5963357e-39
-0.018658996 0.0010700226 0.070535973 9.1364464e-39
-0.0096393824 -0.0042555332 0.068713918 8.3978009e-39
-0.00063514709 -0.0062959194 0.068152979 7.8424481e-39
0.0086990893 -0.011657834 0.06877315 9.5829547e-39
-0.021364361 0.010296583 0.061805919 8.9513348e-39
-0.016622543 0.0059584379 0.061621115 8.6765486e-39
-0.009003073 -0.00034618378 0.059390187 8.6751095e-39
-0.00230667 -0.0033435822 0.059423611 8.1215616e-39
-0.017035812 0.0058456659 0.046222329 8.5850873e-39
-0.010955215 0.0018911362 0.049880758 1.0520479e-38
-0.025176823 0.010824442 0.037814528 8.8598637e-39
-0.01692012 0.005282402 0.040867552 8.8598707e-39
-0.012218595 0.0021960735 0.043377131 8.309585e-39
-0.025618464 0.010853291 0.034677014 9.1360904e-39
-0.03014794 0.01263237 0.018975854 9.504503e-39
-0.022237539 0.0061135292 0.0183741 9.3215621e-39
-0.015831858 0.0004594326 0.016984448 9.2300881e-39
-0.030823499 0.010459065 0.01168412 9.229721e-39
-0.02442643 0.0052154064 0.010699347 9.1386114e-39
-0.017616093 -0.0023906231 0.0094029307 9.2304469e-39
-0.0082518458 -0.0067102909 0.0081582218 9.0456941e-39
-0.0012076199 -0.0089715719 0.0054576993 8.6776262e-39
-0.042372853 0.011039257 0.00097046793 9.8722051e-39
-0.034062117 0.0099197626 0.0019962639 9.3212006e-39
-0.026464373 0.003792882 0.00089289248 9.2304511e-39
-0.019771278 -0.0025597811 0.00012741983 9.3226467e-39
-0.010835916 -0.0079665184 -0.00095579028 9.2300895e-39
-0.0029572546 -0.010669708 -0.0028818995 9.0456899e-39
-0.041539341 0.015061855 -0.0068711489 9.5974231e-39
-0.03643319 0.0088174343 -0.0074432939 9.1375338e-39
-0.029230207 0.002068162 -0.0088472217 9.3222908e-39
-0.021333188 -0.0044394732 -0.0095986724 9.3230096e-39
-0.012435794 -0.0085006952 -0.011246815 9.322288e-39
-0.0038278997 -0.013393879 -0.012524232 9.0453367e-39
0.0044791996 -0.0153234 -0.015165493 8.9527726e-39
-0.043565035 0.016763568 -0.016803503 9.3212034e-39
-0.038694233 0.0082285404 -0.017827675 9.0453424e-39
-0.031314701 0.0014801025 -0.018693194 9.7836333e-39
-0.023018837 -0.0044410229 -0.01954715 1.1534273e-38
-0.013860196 -0.0097250938 -0.019150421 9.5070464e-39
-0.0054152608 -0.014033794 -0.022662058 9.4152011e-39
0.0031080246 -0.014514208 -0.022365108 8.6772703e-39
-0.044701517 0.015362263 -0.025701463 8.8613056e-39
-0.040507406 0.0073244572 -0.027762696 8.7698359e-39
-0.032104343 0.0011833906 -0.028179839 1.0335729e-38
-0.024985105 -0.0041073561 -0.031239226 1.1255529e-38
-0.017277688 -0.0099303722 -0.035613582 8.8613154e-39
-0.0077221692 -0.015855551 -0.033464506 8.8623972e-39
0.0003722012 -0.017217755 -0.034119502 8.7691072e-39
-0.047088116 0.016506672 -0.033131078 9.044978e-39
-0.040980846 0.0065312386 -0.038248554 8.9538684e-39
-0.031613827 -0.00034058094 -0.04127945 9.5066876e-39
-0.025424689 -0.0047029257 -0.041307792 9.782913e-39
-0.017982125 -0.0099207163 -0.041025922 9.6917978e-39
-0.0092809498 -0.013691187 -0.042655125 9.5063219e-39
0.00074449182 -0.017301202 -0.042315021 8.7691044e-39
0.0071150661 -0.019073963 -0.041673228 8.7680198e-39
-0.042317599 0.0068398714 -0.045288458 9.320846e-39
-0.035547614 0.0018105507 -0.048175737 9.229735e-39
-0.026945472 -0.0043275356 -0.049039707 9.2300965e-39
-0.019475102 -0.0096991062 -0.050252512 9.0457039e-39
-0.011728525 -0.011502981 -0.051260248 8.7694729e-39
-0.034552068 0.0026499033 -0.05832164 8.8602224e-39
-0.027524829 -0.00078368187 -0.058877364 8.7680352e-39
-0.018485427 -0.0064870119 -0.059630349 8.5832796e-39
-0.012166977 -0.0093762875 -0.057609007 8.4918042e-39
-0.00044611096 0.0061174631 0.083728507 1.0884146e-38
0.0089846253 -0.00065135956 0.082338318 9.868189e-39
0.016795903 -0.0060839653 0.08312054 9.8566535e-39
-0.00074243546 0.0061368942 0.081623629 1.0328829e-38
0.0077269971 -0.0025072098 0.079126164 8.5796278e-39
0.012354285 -0.0061318874 0.07755129 9.3989222e-39
0.0049670637 -0.0024852753 0.06457071 7.8391831e-39
0.0091716647 -0.0060796738 0.064360604 9.2148911e-39
-0.019257039 0.016049504 0.057043523 8.5829209e-39
-0.01477769 0.010856628 0.056893989 9.1346541e-39
-0.0035691261 0.002004981 0.054453507 8.307399e-39
0.0036947727 -0.00053834915 0.057231948 7.7509517e-39
0.010308057 -0.0035338402 0.06065774 8.940095e-39
-0.020450771 0.016113281 0.050761849 8.5829209e-39
-0.015636176 0.01093483 0.049593538 1.005698e-38
-0.005133003 0.0030425787 0.047896251 8.4003205e-39
0.0015753806 0.00086951256 0.047058001 8.0297149e-39
-0.022701025 0.014332652 0.041662052 8.9516978e-39
-0.016996115 0.010196686 0.040361986 8.8602322e-39
-0.0077996552 0.0056908131 0.038613215 1.0334631e-38
-0.00015956163 0.0017377138 0.037277564 8.4910643e-39
-0.023938209 0.017186642 0.030230895 8.9527712e-39
-0.017518044 0.01069212 0.030766621 1.0059854e-38
-0.0091603398 0.0049638748 0.029327109 1.0430082e-38
-0.00077575445 0.001162529 0.027838811 8.5843432e-39
0.0047871172 -0.0029851198 0.023513839 8.491779e-39
-0.026024073 0.016010046 0.021697834 9.3208348e-39
-0.019428223 0.010655642 0.023006663 9.137531e-39
-0.0098043084 0.0049285889 0.020226851 9.137531e-39
-0.0021777451 0.00062727928 0.017652139 8.7687414e-39
0.0046625137 -0.0043187141 0.015380934 8.7676484e-39
-0.0086247623 0.0017790794 0.012343243 9.1378883e-39
-0.0034945309 -0.0019030571 0.011587009 8.8616559e-39
0.0040994585 -0.0062068701 0.0068522692 8.6761787e-39
0.011028767 -0.0091720819 0.0036148876 8.5836131e-39
0.0051113367 -0.0066590309 -0.0027601719 8.7683785e-39
0.010516822 -0.0095255375 -0.0043253452 8.8594853e-39
-0.043247998 0.024124265 -0.010408953 9.6896145e-39
0.0042108297 -0.0083079338 -0.0094974786 9.0446067e-39
0.010032356 -0.011931658 -0.013212427 8.8598511e-39
0.016017944 -0.014717579 -0.018964171 8.8594839e-39
-0.048538089 0.027166367 -0.018021688 9.3190342e-39
-0.043543577 0.024143457 -0.012508199 9.6889027e-39
0.0087070167 -0.012627363 -0.024665087 8.8602154e-39
0.014892668 -0.014457345 -0.024885908 8.7680114e-39
-0.048790663 0.02671814 -0.024980932 9.2279189e-39
-0.045464486 0.024269581 -0.026153043 8.8609427e-39
0.0082065463 -0.012451887 -0.032928392 8.6765458e-39
0.013478965 -0.014284849 -0.034038976 8.6754612e-39
-0.048562586 0.025866985 -0.03266035 9.2279259e-39
-0.046203285 0.024318218 -0.031401053 8.952781e-39
0.0070074797 -0.014413238 -0.045244709 8.5839887e-39
0.011978358 -0.015181065 -0.044849977 8.4910686e-39
-0.0025948286 -0.0060186386 -0.054398015 8.4928748e-39
0.0038008988 -0.010197997 -0.053038195 8.3077605e-39
0.010182917 -0.013589382 -0.052122727 8.2141201e-39
-0.012423575 -0.0024324656 -0.064236656 8.6740347e-39
-0.0071858466 -0.0036525726 -0.061952576 8.2155747e-39
-0.019770771 0.0062670708 -0.065969899 8.7684009e-39
-0.013443351 0.0014164448 -0.07034038 9.1375492e-39
-0.0081526041 -0.0021362305 -0.068398818 8.8641867e-39
-0.0028383136 0.016559362 0.085628524 1.6495079e-38
0.012181491 0.0042190552 0.084250927 1.0598896e-38
0.015554547 -0.00020158291 0.084253013 1.0222917e-38
-0.0052362084 0.018002748 0.082893386 1.1525949e-38
0.018703133 -0.0031012297 0.076673225 1.0315828e-38
0.0099059343 0.0037736893 0.0546588 7.3785581e-39
0.013815433 0.0028569698 0.054632887 1.0133965e-38
0.0094159842 0.0045015812 0.047551945 7.1966878e-39
0.014154434 0.0053617954 0.046498343 8.8486309e-39
0.0066360235 0.0033529997 0.037357941 7.9367906e-39
0.011022896 0.0044431686 0.036108568 7.3818063e-39
0.005205065 0.0020484924 0.028206691 8.4910559e-39
0.011130303 0.0014749765 0.025174603 8.2126586e-39
0.012101233 -0.0011045933 0.017334595 8.6729179e-39
0.016878933 -0.0022176504 0.013943553 8.3041269e-39
0.010159761 -0.0032141209 0.0085013062 8.6754472e-39
0.016775012 -0.0053104162 0.0051899403 8.4896098e-39
0.023031801 -0.0059703588 0.0014009923 8.2122942e-39
0.016559243 -0.008166194 -0.0046147853 8.766561e-39
0.021345973 -0.0073765516 -0.0077370554 8.5818054e-39
0.015789896 -0.0091946125 -0.013891146 8.951318e-39
0.022194833 -0.010691404 -0.015941307 8.674364e-39
0.021266818 -0.014122963 -0.025787815 8.4906986e-39
0.027284592 -0.014078379 -0.026860461 8.1208301e-39
0.019540995 -0.013397098 -0.036349162 8.3985086e-39
0.025970995 -0.013544321 -0.037056074 8.2130285e-39
0.018903852 -0.012204409 -0.046039775 8.3052298e-39
0.025647908 -0.011906385 -0.046700224 8.2108663e-39
0.0090703368 -0.0083796978 -0.057463154 7.8456963e-39
0.01625827 -0.010327935 -0.054910794 7.8438901e-39
-0.0019102693 -0.0012999773 -0.064757034 7.9393451e-39
0.0063872635 -0.0051195621 -0.064453021 7.8453418e-39
0.014642179 -0.0057964325 -0.06237717 7.474753e-39
0.010995626 0.019823194 0.086111233 1.0322313e-38
0.015128374 0.013740778 0.085922003 9.9492135e-39
0.013148218 0.011604309 0.046657294 7.745163e-39
0.017725021 0.0081560612 0.04416807 1.0502735e-38
0.01293385 0.010485053 0.032535568 7.7505916e-39
0.01857549 0.010975599 0.034848258 9.0326648e-39
0.018636525 0.0078810453 0.02681981 7.4725488e-39
0.025872678 0.0058121681 0.02235432 9.6787517e-39
0.03264305 0.0040544271 0.019955441 1.4929191e-38
0.025555164 0.0029330254 0.013902798 7.9324507e-39
0.03226909 0.0036990643 0.013072714 1.0051137e-38
0.025233775 0.00071585178 0.0066202432 8.0260967e-39
0.029734582 -5.0783157e-05 0.0021807402 7.6573114e-39
0.02980414 -0.0016514063 -0.0070268363 7.9346255e-39
0.030942321 -0.003708005 -0.015577689 8.1193811e-39
0.036590725 -0.0043715239 -0.018940285 7.5654801e-39
0.030054688 -0.006503582 -0.022246554 8.303778e-39
0.035871446 -0.0078133345 -0.027388811 7.9342654e-39
0.042033941 -0.0068238974 -0.02743797 8.2997913e-39
0.034293532 -0.00877738 -0.037708625 8.2108537e-39
0.040069759 -0.0066950321 -0.041389272 8.1154113e-39
0.032958061 -0.0099923611 -0.047063097 8.5763908e-39
0.037339389 -0.010343552 -0.048792168 1.2719387e-38
0.02430433 -0.0035152435 -0.058303729 7.4729355e-39
0.030843019 -0.0070322752 -0.055284575 8.0239317e-39
0.015482187 0.00078904629 -0.068946436 7.7534993e-39
0.021610051 0.00084590912 -0.065772548 7.4740243e-39
0.026050925 0.01653564 0.030723825 1.1328897e-38
0.027863413 0.013132691 0.028902933 1.1421088e-38
0.025805622 0.014411926 0.027007669 1.1513651e-38
0.029990613 0.014647126 0.026038527 1.132925e-38
0.03245616 0.0082542896 0.010637105 7.6554813e-39
0.036656708 0.008474946 0.0096297115 1.1245737e-38
0.037333459 0.0070698261 0.0021028817 7.0112105e-39
0.04252097 0.0048917532 -0.0024604052 9.0344711e-39
0.037871808 0.0028642416 -0.0068707019 7.1037705e-39
0.043124646 0.0034885406 -0.0094363838 7.3781951e-39
0.037893713 0.0021762848 -0.014349148 7.5647598e-39
0.044084847 0.00021874905 -0.018789336 7.3781994e-39
0.050177455 -0.0022704601 -0.022122011 1.2903076e-38
0.043990731 -0.0013699532 -0.027839288 8.0232044e-39
0.047629654 -0.0027965307 -0.02974464 1.0601072e-38
0.041879922 -0.0026623011 -0.036922857 8.2093978e-39
0.04529646 -0.0024923086 -0.038573548 1.0692189e-38
0.043782473 0.00021600723 -0.044566169 1.1613397e-38
0.031882823 0.0046541691 -0.061151341 7.4711223e-39
0.033640504 0.0033926964 -0.061410472 7.4711138e-39
0.028420538 0.0057698488 -0.068429574 7.3811e-39
0.04080382 0.011472464 0.0027070194 9.8635283e-39
0.048193574 0.0065799952 -0.0040337592 1.5296554e-38
0.049369425 0.0049808025 -0.0098147392 1.3733192e-38
0.051950902 0.0026751757 -0.0077922195 1.7228689e-38
0.048424453 0.0044429302 -0.015759423 9.1255863e-39
0.051385045 0.002872467 -0.018214718 1.4008691e-38
0.049137533 0.0017074347 -0.040587649 1.3918293e-38
0.036999822 0.010344744 -0.066897437 6.8264619e-39
