# .PCD v0.7 - Point Cloud Data file format
VERSION 0.7
FIELDS x y z rgb
SIZE 4 4 4 4
TYPE F F F F
COUNT 1 1 1 1
WIDTH 247
HEIGHT 1
VIEWPOINT 0 0 0 1 0 0 0
POINTS 247
DATA ascii
-0.0094668642 -0.003105998 0.08049801 1.0059824e-38
-0.0094413832 -0.0039081573 0.076261759 9.1368149e-39
-0.021065153 -0.013470173 -0.0084722638 9.3230152e-39
-0.032708205 -0.0084460974 -0.014914215 1.0427561e-38
-0.023603745 -0.013508439 -0.015966117 1.4024259e-38
-0.017719992 -0.018822074 -0.017327726 1.3747321e-38
-0.014742173 -0.023057342 -0.020211756 1.5134196e-38
-0.037871726 -0.007537961 -0.024861604 8.7698443e-39
-0.026540883 -0.013517737 -0.024448752 1.2545539e-38
-0.019903161 -0.019863725 -0.025662541 1.1163699e-38
-0.01339636 -0.02171886 -0.025204837 1.1628636e-38
-0.053514279 -4.7683716e-07 -0.029286683 9.5045086e-39
-0.050336488 -0.001717329 -0.02938509 9.2293679e-39
-0.03786663 -0.0082794428 -0.028829873 9.046427e-39
-0.030040987 -0.013399839 -0.033863753 9.6907174e-39
-0.022167154 -0.017879128 -0.033774614 9.5996035e-39
-0.01507885 -0.021196723 -0.032786727 1.0058775e-38
-0.030757017 -0.014279246 -0.040643871 9.2304595e-39
-0.022061713 -0.019208193 -0.042153805 9.138617e-39
-0.015687712 0.0086125135 0.082376733 1.0698692e-38
-0.011060335 0.0041068792 0.083442003 1.0330269e-38
-0.0022305921 0.00029182434 0.081688464 9.5030373e-39
0.0067369267 -0.001313448 0.078013867 9.2246483e-39
-0.017667122 0.0079505444 0.073138118 9.2275574e-39
-0.013833173 0.0033569336 0.073873669 9.2289993e-39
-0.0045061484 -0.0014901161 0.07199882 8.3063228e-39
0.0037507936 -0.0025771856 0.070441931 7.9346424e-39
-0.018552043 0.0098949671 0.064580947 8.7673051e-39
-0.013509877 0.0073573589 0.06460464 8.67655e-39
-0.0054425076 0.00098216534 0.062578291 8.5836327e-39
0.0019759461 0.00013840199 0.062884673 8.1219133e-39
-0.0082735792 0.0038074255 0.053164661 1.0705227e-38
-0.011541076 0.0043523312 0.046710134 8.4021337e-39
-0.029999442 0.0096430779 0.022132844 9.3215509e-39
-0.021435507 0.0039405823 0.021576881 9.2300853e-39
-0.014123715 -0.0013643503 0.02093491 9.1382498e-39
-0.0063777044 -0.0037468672 0.01803118 8.953497e-39
-0.032864161 0.0064857006 0.016026676 9.4130277e-39
-0.025282539 0.0017433167 0.014846861 9.5055918e-39
-0.016706653 -0.0032209158 0.01364553 9.2304483e-39
-0.0073913708 -0.0065510273 0.011282623 9.1375282e-39
-0.040929474 0.011992812 0.0033719838 9.7810913e-39
-0.03522224 0.0058783293 0.0067755282 9.3219166e-39
-0.027436562 0.00060403347 0.005629003 9.3226425e-39
-0.019342341 -0.004776597 0.0044128895 9.5063163e-39
-0.0099765137 -0.0090507269 0.0027126968 9.2300867e-39
-0.002075471 -0.011568069 -0.00082451105 9.137524e-39
-0.042834736 0.011696696 -0.0036879778 9.4137507e-39
-0.037317075 0.0054585934 -0.0034851134 9.1382498e-39
-0.030220188 -0.00180161 -0.0043442845 9.1389757e-39
-0.021742351 -0.0078699589 -0.0050223768 9.5066806e-39
-0.01251135 -0.010893345 -0.0073494315 9.2308098e-39
-0.0034520105 -0.014391422 -0.0091388226 9.0460542e-39
0.0034839436 -0.014641762 -0.012175977 8.95349e-39
-0.052702971 0.015151858 -0.013461411 9.4126675e-39
-0.047434308 0.010467887 -0.011148453 9.3219152e-39
-0.040993102 0.0021849871 -0.012765944 8.8623874e-39
-0.03296528 -0.0034835339 -0.013684005 9.691795e-39
-0.024328537 -0.0082885027 -0.01469779 1.134952e-38
-0.013664044 -0.013246536 -0.014412642 9.413406e-39
-0.0058389977 -0.016005278 -0.019150257 9.5995895e-39
0.0016726777 -0.014974833 -0.019163311 8.8616601e-39
-0.05606515 0.015665293 -0.02035749 9.1364408e-39
-0.050250478 0.010121346 -0.021097362 8.8613014e-39
-0.044032283 0.00074565411 -0.022742093 8.86167e-39
-0.033930071 -0.0047380924 -0.023195088 1.0427924e-38
-0.027715303 -0.0084704161 -0.025398433 1.2453704e-38
-0.0079390779 -0.018469691 -0.029148966 9.1382625e-39
0.00012906641 -0.019358039 -0.030679107 8.7694645e-39
-0.052657075 0.0086598396 -0.027920485 9.1368093e-39
-0.045412399 -0.00029206276 -0.032279968 9.1375366e-39
-0.037523039 -0.0048611164 -0.034171999 9.2308168e-39
-0.027974136 -0.010564089 -0.037387311 1.024209e-38
-0.020003684 -0.014950395 -0.038063467 9.7836347e-39
-0.010890551 -0.018796802 -0.038449705 9.4148437e-39
-0.00072029978 -0.020032048 -0.039384067 8.7691044e-39
0.0066659972 -0.021220207 -0.038373768 8.5847061e-39
-0.046631552 0.00084984303 -0.040960133 9.321202e-39
-0.038879402 -0.0056675673 -0.042395532 9.0467801e-39
-0.030480005 -0.010763764 -0.045654833 9.2300923e-39
-0.021946259 -0.015209913 -0.046008706 9.0464185e-39
-0.013549216 -0.016872525 -0.046902567 8.8616644e-39
-0.045799054 -0.0029640198 -0.047741801 9.5948938e-39
-0.039849766 -0.0053287745 -0.050958961 8.9520579e-39
-0.031036235 -0.0091104507 -0.053184152 8.7687457e-39
-0.022118308 -0.012107611 -0.054977655 8.4918028e-39
-0.015133686 -0.014534116 -0.055174708 8.307413e-39
0.01202374 0.0060366392 0.085764378 1.0327722e-38
0.020066611 -0.00098562241 0.084099948 9.7662516e-39
0.0066046938 0.0094317198 0.082887501 1.0145144e-38
0.012105189 0.0044003725 0.080201566 8.9476845e-39
0.017291836 0.00090193748 0.07701382 9.398925e-39
0.010749124 0.0026904345 0.067835897 8.1139637e-39
0.016680293 0.0012985468 0.070774496 9.8580941e-39
-0.017991878 0.015104175 0.061252922 8.7669506e-39
-0.013214089 0.012209415 0.059422404 8.9513418e-39
9.6581876e-05 0.0047177076 0.057397112 8.2148418e-39
0.0057256445 0.0041512251 0.059121266 7.8438775e-39
-0.018995292 0.01545465 0.053642005 8.4914427e-39
-0.013763584 0.012025356 0.05222711 9.6899943e-39
-0.0030487552 0.0050696135 0.050257742 8.4932392e-39
0.0037238225 0.0044935942 0.048092633 8.2137488e-39
-0.020160832 0.015360475 0.043175459 8.7676681e-39
-0.01503367 0.010789275 0.043097943 9.0442619e-39
-0.0063368753 0.0062340498 0.041514874 1.0334629e-38
0.0026111528 0.0033472776 0.039770126 8.4907014e-39
-0.022805162 0.015791774 0.034293115 8.8605783e-39
-0.016820319 0.009780407 0.033605337 1.015169e-38
-0.0082212761 0.0051829815 0.032156616 1.0430442e-38
0.00060086697 0.0022306442 0.030192107 8.6758185e-39
0.0070636794 -0.0015387535 0.025279284 8.583253e-39
-0.027102835 0.014098287 0.02475372 9.2289979e-39
-0.019691683 0.0093859434 0.02565816 8.9542187e-39
-0.0094203725 0.0037531853 0.02346769 8.9538586e-39
-0.0011577681 0.00047361851 0.020199299 8.7690988e-39
0.0065809414 -0.0030010939 0.018095672 8.6758115e-39
-0.030187763 0.013764977 0.019044429 9.4130263e-39
-0.008304365 0.0013605356 0.015244603 9.137531e-39
-0.0019413605 -0.0020273924 0.012229383 8.8612972e-39
0.0042040572 -0.0044629574 0.008608222 8.6768975e-39
0.01245489 -0.0080581903 0.0057404637 8.5836103e-39
0.0045612678 -0.0060809851 0.00017794967 8.8605713e-39
0.010837607 -0.0086752176 -0.002217114 8.7680086e-39
-0.048420615 0.020757437 -0.0050035715 9.78072e-39
-0.043834127 0.017008424 -0.0027151704 9.7810885e-39
0.0046765432 -0.0086246729 -0.0072910786 8.9534872e-39
0.0095336661 -0.011358261 -0.011556268 8.8605685e-39
0.016138636 -0.014218688 -0.01677382 8.7676484e-39
-0.04915572 0.01892674 -0.007689476 9.872917e-39
0.00057625026 -0.010461926 -0.022759318 8.9534984e-39
0.0071192905 -0.013092637 -0.021808922 8.8609343e-39
0.015229456 -0.014876008 -0.022914052 8.7680072e-39
-0.053803809 0.019015908 -0.020555556 9.2282805e-39
0.0072214231 -0.014399886 -0.030387521 8.6765444e-39
0.012581609 -0.015332103 -0.031809509 8.6758157e-39
-0.056321688 0.018995881 -0.027893305 9.5945406e-39
0.005361788 -0.016668439 -0.042357385 8.584346e-39
0.010269634 -0.015837193 -0.042318165 8.4910686e-39
-0.0060264245 -0.010091901 -0.052073568 8.4925147e-39
0.00099443644 -0.013581514 -0.05029577 8.4914301e-39
0.0090940818 -0.016574383 -0.049652934 8.3055913e-39
-0.033815391 0.001046896 -0.059683979 8.4939538e-39
-0.031991728 1.3232231e-05 -0.060000539 8.493958e-39
-0.01969526 -0.0065578222 -0.059990942 8.3988841e-39
-0.0097545758 -0.0091639757 -0.059336185 8.0315435e-39
-0.0026018098 -0.011775017 -0.057453334 7.9368228e-39
-0.035463728 0.0052512884 -0.060349643 8.4936007e-39
-0.027235456 0.00058710575 -0.061778426 8.6776346e-39
-0.017820545 -0.0050928593 -0.065256655 8.9549516e-39
-0.013060071 -0.0075817108 -0.064956665 8.8645482e-39
0.0018500611 0.023028493 0.086721331 1.3456246e-38
0.0063664243 0.01691103 0.085962623 1.0972377e-38
0.017160617 0.011998177 0.085010201 1.0415578e-38
-0.002186276 0.018875599 0.083684266 9.0406368e-39
0.0042363927 0.01523447 0.082569033 1.0236628e-38
0.022544526 0.0044044256 0.076961964 9.9484834e-39
0.014655702 0.0063146353 0.064572573 9.0315746e-39
0.017536961 0.0049626827 0.06558305 1.0133233e-38
0.012011461 0.0089529753 0.057162166 7.5629507e-39
0.017523699 0.009120822 0.054550678 9.8580899e-39
0.010131977 0.0077749491 0.049288243 7.3814476e-39
0.014703564 0.0085209608 0.045699179 7.7455329e-39
0.0088025555 0.0055166483 0.038681 7.9364304e-39
0.012407415 0.0066155195 0.036278069 7.3821678e-39
0.0064762458 0.0042408705 0.029949099 8.4914161e-39
0.012239777 0.0032782555 0.026924759 8.1204615e-39
0.013685547 0.0011308193 0.019026786 8.3970512e-39
0.016452424 -0.00064349174 0.014524966 8.3044941e-39
0.010627203 -0.0016479492 0.01023519 8.950595e-39
0.017254792 -0.0033560991 0.0066709816 8.3974142e-39
0.023351245 -0.0019465685 0.001960218 8.2119355e-39
0.016636185 -0.0066435337 -0.0030480623 8.6747269e-39
0.021604262 -0.0049096346 -0.0066270828 8.4896112e-39
0.015344255 -0.0083400011 -0.012166888 8.8594839e-39
0.02198752 -0.009338975 -0.013889611 8.5821684e-39
0.025800817 -0.011774182 -0.019106567 8.3974086e-39
0.021372817 -0.013766646 -0.024005175 8.3984988e-39
0.025365703 -0.012768984 -0.02501297 8.2130229e-39
0.01840838 -0.012978435 -0.03489691 8.5825341e-39
0.023590885 -0.011350393 -0.035518706 8.3052241e-39
0.015808187 -0.013496399 -0.044228196 8.3055913e-39
0.022621147 -0.012174129 -0.045575857 8.1193895e-39
0.0055185482 -0.011074662 -0.055065751 7.9375318e-39
0.013448857 -0.013106942 -0.05374229 7.6591387e-39
0.019703917 -0.013037801 -0.051627994 7.7506042e-39
-0.0054359511 -0.0066064596 -0.062516272 8.031182e-39
0.0017018244 -0.0086973906 -0.061843991 7.662031e-39
0.010417603 -0.0091468096 -0.060271084 7.1992381e-39
0.021667264 0.019040465 0.085164025 9.579345e-39
0.018143825 0.015356898 0.055262789 1.0684614e-38
0.019996904 0.014306426 0.054940999 1.0867919e-38
0.015416376 0.015279889 0.047018349 8.1121462e-39
0.020071231 0.012727976 0.044360667 1.0685686e-38
0.018930368 0.01518786 0.03480491 8.8493483e-39
0.0198543 0.011782527 0.026159942 7.472553e-39
0.025447182 0.010651231 0.020780385 9.2195854e-39
0.032820694 0.0088965893 0.019497335 1.5022453e-38
0.024995379 0.0074709654 0.014515847 8.024289e-39
0.032015733 0.0082913637 0.013935328 1.1523743e-38
0.025367521 0.004745841 0.006662637 7.8420656e-39
0.029055767 0.0049302578 0.00096178055 7.8413453e-39
0.029483132 0.0012010336 -0.0069816411 7.934264e-39
0.029872589 -0.0024427176 -0.015488386 8.1197371e-39
0.035022877 -0.001295805 -0.018761963 7.6576743e-39
0.02855473 -0.0045435429 -0.021737874 8.3044927e-39
0.033029668 -0.004945755 -0.027604103 8.0264624e-39
0.040088676 -0.0037970543 -0.027817547 8.2994354e-39
0.031220131 -0.0072774887 -0.03741312 8.3023319e-39
0.037597172 -0.0046303272 -0.039446354 8.2994424e-39
0.03018143 -0.0086718798 -0.046867728 9.0366417e-39
0.035457693 -0.0088397264 -0.048448205 1.3363679e-38
0.021092467 -0.0044513941 -0.058715641 7.380021e-39
0.026998214 -0.0050709248 -0.054413199 8.6678648e-39
0.0092334971 -0.0019025803 -0.067655444 7.7538594e-39
0.015473925 -0.00070571899 -0.064911723 7.4743873e-39
0.025018267 0.022815824 0.030713379 1.114558e-38
0.026122026 0.021169305 0.026684046 1.0961909e-38
0.030250661 0.016936898 0.022387564 1.2342679e-38
0.031471513 0.012447119 0.010006398 7.6547652e-39
0.034277074 0.011822581 0.0097687244 1.0327011e-38
0.030562274 0.012143135 0.0057629049 7.1959745e-39
0.035199128 0.012082338 0.0011143088 7.1948871e-39
0.036538862 0.0065530539 -0.007103622 7.0115818e-39
0.041784249 0.0069534779 -0.010224372 7.8395306e-39
0.041820996 0.0034720898 -0.020008564 7.1030516e-39
0.047978006 0.001999855 -0.023405612 1.2811241e-38
0.040662102 0.0014698505 -0.029624403 8.1154057e-39
0.045193844 0.00081324577 -0.030719936 1.0785102e-38
0.03921964 -0.00013911724 -0.035353005 8.4845469e-39
0.042224221 6.878376e-05 -0.040010929 1.1429385e-38
0.036037497 -0.0012032986 -0.05020535 1.4005448e-38
0.026274316 0.0042635202 -0.061217725 7.5622445e-39
0.029313497 0.0027457476 -0.060643196 8.1139581e-39
0.020662419 0.0057355165 -0.068300784 7.4732999e-39
0.029922329 0.025876522 0.028314054 1.1512195e-38
0.030406676 0.025189281 0.026013821 1.1511836e-38
0.032613687 0.023663282 0.024153233 1.1327447e-38
0.03841158 0.02066493 0.006180048 1.4010148e-38
0.039841168 0.015243888 -0.0003182292 1.0048629e-38
0.046124272 0.010916114 -0.0055248737 1.5205794e-38
0.047254287 0.0093129873 -0.010892034 1.3734629e-38
0.049690269 0.0078634024 -0.011684358 1.6677674e-38
0.045880936 0.0088535547 -0.017301977 8.9422768e-39
0.048828833 0.0074853897 -0.01989013 1.391829e-38
0.034308903 0.0077064037 -0.061317295 1.0325541e-38
0.03047993 0.0082317591 -0.064859688 6.642428e-39
0.039075963 0.020797014 -0.065268219 1.3826099e-38
