# .PCD v0.7 - Point Cloud Data file format
VERSION 0.7
FIELDS x y z rgb
SIZE 4 4 4 4
TYPE F F F F
COUNT 1 1 1 1
WIDTH 237
HEIGHT 1
VIEWPOINT 0 0 0 1 0 0 0
POINTS 237
DATA ascii
-0.010445103 0.003456831 0.074867636 9.0456955e-39
-0.019937947 -0.01562953 -0.0090940297 9.1393401e-39
-0.031023428 -0.012179971 -0.015970409 1.0703432e-38
-0.023908511 -0.015872359 -0.016793251 1.3564367e-38
-0.016870216 -0.020614028 -0.017062724 1.3748036e-38
-0.045728341 -0.007647872 -0.025246799 8.7691198e-39
-0.033393994 -0.013204575 -0.02368325 1.0704143e-38
-0.027157024 -0.016070962 -0.023092687 1.4297253e-38
-0.017969295 -0.022329569 -0.024211437 1.3189478e-38
-0.0099357516 -0.024167299 -0.022106886 1.4120422e-38
-0.046637788 -0.0086901188 -0.030505538 8.9531495e-39
-0.033093825 -0.015322566 -0.030668139 9.3219376e-39
-0.029068187 -0.017478108 -0.031369567 9.2308224e-39
-0.018200472 -0.022869706 -0.031747699 9.5992406e-39
-0.020363346 0.017134309 0.077785343 1.0426427e-38
-0.01407735 0.014769316 0.079519629 1.0330987e-38
-0.0057732016 0.010230541 0.077700436 9.5959616e-39
0.0031331927 0.007797122 0.075025469 8.8573147e-39
-0.022805288 0.018361807 0.069798917 9.6863705e-39
-0.016047552 0.010378003 0.071039796 9.2282833e-39
-0.0072744936 0.0057694912 0.070048869 8.3063242e-39
0.001092121 0.0059713125 0.068700135 7.9346466e-39
-0.021791056 0.017998338 0.062130153 9.1342842e-39
-0.016362116 0.012485385 0.061707318 8.7683841e-39
-0.0077027828 0.0073320866 0.059925586 8.7673037e-39
0.00040523708 0.0065311193 0.059745491 7.9378808e-39
-0.0095494539 0.0086581707 0.051293224 1.0705587e-38
-0.0025206059 0.0058970451 0.0524593 8.3981541e-39
-0.024970576 0.014353991 0.043744147 9.0424557e-39
-0.016843423 0.0091649294 0.039362758 8.6769214e-39
-0.031472012 0.010787368 0.019910574 9.4126633e-39
-0.022933409 0.0058839321 0.019056022 9.0460556e-39
-0.015333369 0.00031352043 0.018258631 9.13861e-39
-0.0068226308 -0.0021418333 0.016572475 8.9538558e-39
-0.033680663 0.0060468912 0.012567222 9.4130305e-39
-0.025753722 0.0021018982 0.012382269 9.229728e-39
-0.017259851 -0.002789855 0.011781305 9.3219264e-39
-0.0070657581 -0.0059341192 0.010849684 8.9538558e-39
-0.00071452558 -0.0075730085 0.0078557134 8.6776248e-39
-0.042143777 0.0094819069 0.0015485287 9.6885327e-39
-0.035656169 0.0049138069 0.0029052496 9.3215607e-39
-0.02742447 -0.0004940033 0.0031779408 9.3222852e-39
-0.01917617 -0.0053266287 0.0027062595 9.3226439e-39
-0.0097922534 -0.0094600916 0.001791358 9.1386086e-39
-0.0017365366 -0.011027455 -0.00040405989 8.7698247e-39
-0.042471245 0.0075420141 -0.0069203973 9.4133948e-39
-0.037363425 0.0021244287 -0.0065924227 8.9542215e-39
-0.029855296 -0.0041149855 -0.0066326559 9.3222866e-39
-0.021045879 -0.0097230673 -0.0063352287 9.230814e-39
-0.011579558 -0.012332201 -0.008048445 9.2308098e-39
-0.0022958666 -0.01577425 -0.0090169311 8.8620245e-39
0.0061536878 -0.016484141 -0.011879146 8.769103e-39
-0.053021744 0.010174751 -0.019380093 9.3201202e-39
-0.047177926 0.0062090158 -0.017109871 9.2293665e-39
-0.040490732 -0.0012704134 -0.015983939 8.7701932e-39
-0.032672152 -0.0065977573 -0.01529187 9.1375464e-39
-0.023289129 -0.011187434 -0.015387982 1.0703793e-38
-0.01207836 -0.015736938 -0.016545534 9.876189e-39
-0.0042104274 -0.018179893 -0.019191563 9.7843409e-39
0.0042206198 -0.017456532 -0.018653721 8.7691058e-39
-0.053551689 0.0095674992 -0.022444427 9.3197586e-39
-0.050473318 0.0041121244 -0.024915755 8.8605854e-39
-0.042368457 -0.0047075748 -0.025298983 8.7698387e-39
-0.035266772 -0.0084445477 -0.026304245 9.1382625e-39
-0.025260016 -0.013909817 -0.028425574 1.0334296e-38
-0.014684096 -0.01916039 -0.028806746 9.9680371e-39
-0.0072277039 -0.021980762 -0.028492063 9.4144976e-39
0.0020865649 -0.023306966 -0.029674649 8.6772717e-39
-0.051808044 -0.00055789948 -0.033141881 9.3204817e-39
-0.04415141 -0.0062781572 -0.035560131 9.1371821e-39
-0.036051407 -0.010700107 -0.035645932 9.1382653e-39
-0.025850549 -0.015903831 -0.036506236 9.6910789e-39
-0.017641351 -0.019557476 -0.036932826 9.6917992e-39
-0.0085081607 -0.023103118 -0.037963718 9.5063219e-39
0.0015978068 -0.025064111 -0.038701385 8.6769102e-39
0.0076738745 -0.02619946 -0.037172735 8.4013953e-39
-0.044399723 -0.006436348 -0.04393214 9.3208474e-39
-0.03606458 -0.012109637 -0.044926852 9.046064e-39
-0.02766721 -0.017441154 -0.045079947 9.2300979e-39
-0.018866226 -0.021421552 -0.046235919 9.0457011e-39
-0.010800943 -0.021838427 -0.046424747 8.9535012e-39
-0.04195489 -0.0091617107 -0.05255574 9.1353674e-39
-0.036813155 -0.011206627 -0.05432871 8.8595078e-39
-0.028916761 -0.017134786 -0.054753542 8.768031e-39
-0.019153193 -0.01918602 -0.055560857 8.3999687e-39
-0.011312798 -0.019720674 -0.053430855 8.6765542e-39
0.0016670674 0.020175457 0.08512938 1.1154243e-38
0.0086804777 0.015538216 0.083554685 1.0695066e-38
0.016260162 0.012445688 0.081999302 1.0226874e-38
-0.0070006996 0.020283699 0.079448193 9.4997862e-39
-0.00013823807 0.018320322 0.078219265 1.0329184e-38
0.0084097832 0.013867497 0.076849639 9.1306366e-39
0.015346661 0.012133837 0.076882899 9.4903989e-39
-0.024402246 0.025292754 0.06721589 1.0052988e-38
0.0078566223 0.011391997 0.066894323 8.298355e-39
0.012861088 0.011630535 0.070818424 9.7669816e-39
-0.022089079 0.023003101 0.057865649 9.0417284e-39
-0.015412793 0.017660499 0.055665463 9.3186838e-39
-0.0018197745 0.010625601 0.054161161 8.3992275e-39
0.0049033314 0.0097607374 0.056582838 7.8427914e-39
-0.021698758 0.021252513 0.048621267 8.3999673e-39
-0.01588048 0.016707659 0.048436403 9.873308e-39
-0.0058819801 0.011126876 0.045891672 8.4006806e-39
0.002886042 0.0088772774 0.0468086 8.1208329e-39
-0.023350045 0.017140865 0.040152162 8.6761927e-39
-0.017558679 0.014413238 0.039788574 9.2286518e-39
-0.0079312176 0.012020946 0.038310379 9.9669273e-39
0.00066111982 0.0081343651 0.037418395 8.4910629e-39
-0.024434671 0.017557979 0.030278683 8.676913e-39
-0.018569067 0.012302876 0.030189633 9.8761834e-39
-0.0096694678 0.0085930824 0.029375076 1.0338608e-38
-0.00082530081 0.0055134296 0.02834481 8.5843446e-39
0.0056304187 0.0017791986 0.023466885 8.5836159e-39
-0.028025433 0.015133142 0.020922482 9.1371624e-39
-0.020542338 0.010778427 0.022451282 9.0460556e-39
-0.010781273 0.006546855 0.02102524 8.95386e-39
-0.0017770678 0.0031927824 0.018363655 8.7690988e-39
0.0056201369 -0.00021338463 0.016390294 8.7676484e-39
-0.029669061 0.013017416 0.014660776 9.3208376e-39
-0.0013624877 -0.001327157 0.012608916 8.6776248e-39
0.0041418821 -0.0036475658 0.0077747107 8.5847033e-39
0.012672737 -0.0067256689 0.0054713488 8.6750885e-39
0.0053516477 -0.0061039925 -0.0008738935 8.7683785e-39
0.011398241 -0.008330822 -0.0024101734 8.6758143e-39
-0.045552805 0.014151216 -0.0086841881 9.6892558e-39
0.0048312098 -0.0091093779 -0.0073363781 8.8609357e-39
0.011078402 -0.012339711 -0.010706574 8.7683743e-39
0.017675057 -0.015237331 -0.014954567 8.7676456e-39
-0.052037403 0.015106082 -0.016471863 9.2289923e-39
-0.047636703 0.013478398 -0.01465717 9.5974231e-39
0.0093964189 -0.0158602 -0.021963745 8.7683813e-39
0.016542032 -0.016521811 -0.021694183 8.7676498e-39
-0.055276588 0.0148592 -0.022926211 9.0442465e-39
0.0088105351 -0.01725316 -0.029605806 8.7683813e-39
0.014363065 -0.017924428 -0.031286567 8.5839844e-39
0.0086447746 -0.021049738 -0.04001537 8.4006764e-39
0.013275847 -0.02167213 -0.041301042 8.3073962e-39
-0.0040258914 -0.016126275 -0.052239537 8.5839943e-39
0.0037089735 -0.019531369 -0.050311089 8.3992345e-39
0.011315748 -0.021417141 -0.048907459 8.2134013e-39
-0.014392599 -0.014477372 -0.061294973 8.4903651e-39
-0.0068729371 -0.015901685 -0.058670193 8.0311834e-39
0.00028039515 -0.018427253 -0.05732584 7.7535091e-39
-0.034254923 -0.0032767057 -0.063148707 9.043899e-39
-0.023847982 -0.0085506439 -0.063903034 8.7687541e-39
-0.017094657 -0.012625694 -0.066705376 9.0457109e-39
-0.010602549 -0.015262723 -0.064863235 9.0471388e-39
-0.0041218251 0.027412295 0.081211686 1.3367339e-38
-0.0022228211 0.026449919 0.081073999 1.2446822e-38
0.012733027 0.020050406 0.084167898 1.0504544e-38
0.017480418 0.017644644 0.0838238 1.0131437e-38
-0.0062920302 0.030393004 0.078548968 9.2243106e-39
-0.00068061054 0.025078773 0.078873158 1.0328113e-38
0.016467646 0.014914274 0.072407633 1.0041764e-38
0.011440143 0.014906526 0.06371969 9.1234073e-39
0.015213087 0.016357303 0.06316638 1.0592772e-38
0.010104075 0.014811635 0.054579914 7.2874372e-39
0.013900355 0.014065981 0.052788436 9.5829449e-39
0.010298297 0.014348149 0.045551091 7.8384474e-39
0.01389052 0.013067365 0.045621783 8.9400978e-39
0.007410571 0.011077762 0.035457283 8.0282645e-39
0.010914758 0.012948155 0.034397185 7.4736404e-39
0.0048796386 0.0076860189 0.0268417 8.5832516e-39
0.01067625 0.0084716082 0.025027722 8.3044927e-39
0.012151107 0.0047446489 0.016982138 8.4892497e-39
0.016337648 0.0020660162 0.013802141 8.2126572e-39
0.0098585039 0.00027656555 0.0091718435 8.5836131e-39
0.01718308 -0.0015486479 0.0059580803 8.3977715e-39
0.023364142 -0.00046420097 0.0013649166 8.2119355e-39
0.017274335 -0.0056672096 -0.0036794543 8.6743682e-39
0.02186121 -0.0051521063 -0.0066536069 8.6732864e-39
0.016617104 -0.008456111 -0.01011923 9.0424361e-39
0.023326918 -0.0099488497 -0.01363942 8.4903329e-39
0.027144983 -0.012454987 -0.018340975 8.2140991e-39
0.022427991 -0.015207291 -0.024024069 8.3070262e-39
0.027496114 -0.012102604 -0.02461499 8.1211902e-39
0.02032654 -0.016204596 -0.033615589 8.3070304e-39
0.026498958 -0.015258551 -0.035190433 8.3041465e-39
0.019437686 -0.017899513 -0.042776048 8.1215602e-39
0.025994703 -0.016616464 -0.044626147 8.0264751e-39
0.0078183562 -0.016971469 -0.055439651 7.9371717e-39
0.016051069 -0.017306089 -0.053280592 7.7509756e-39
0.022681788 -0.017304778 -0.05133605 7.6580471e-39
-0.00514777 -0.012825251 -0.06308794 8.1230203e-39
0.0048850924 -0.015707493 -0.062450647 7.662031e-39
0.012515828 -0.016328573 -0.058616817 7.5665885e-39
0.016759679 0.018284678 0.040146858 1.0502736e-38
0.017443314 0.01915741 0.031772166 9.2170519e-39
0.017991468 0.015536427 0.023727715 7.7480609e-39
0.02403231 0.015024185 0.019452155 9.4947206e-39
0.031558201 0.012819648 0.017832816 1.5022114e-38
0.023859337 0.010866761 0.012647033 7.9328165e-39
0.031239584 0.011258364 0.01175344 1.1246796e-38
0.024803564 0.0063174963 0.0055162609 7.8420684e-39
0.029322639 0.0066717863 0.00091266632 7.5651158e-39
0.028788432 0.0021438599 -0.0077607632 8.0264638e-39
0.031088129 -0.00066280365 -0.015835166 7.9353486e-39
0.036410525 -0.0019763708 -0.019221693 7.381449e-39
0.029607579 -0.0054219961 -0.021697044 8.1208231e-39
0.034857765 -0.0065044165 -0.027266502 8.0261037e-39
0.041793242 -0.0049506426 -0.027483433 8.2075985e-39
0.033705518 -0.0095858574 -0.036354959 8.3023291e-39
0.040066078 -0.0074994564 -0.039487302 9.495808e-39
0.032618985 -0.012594104 -0.045667261 8.7607779e-39
0.037333742 -0.012726903 -0.047132939 1.2811942e-38
0.021869138 -0.010532618 -0.059226453 7.1967116e-39
0.028808013 -0.01061976 -0.054897428 7.8399076e-39
0.012908444 -0.0088391304 -0.066631347 7.6609421e-39
0.018397883 -0.0079979897 -0.065574765 7.4743845e-39
0.024019495 0.025775433 0.02635628 1.1237424e-38
0.024533883 0.024762034 0.023652673 1.1421095e-38
0.028595522 0.02084887 0.020482302 1.2251202e-38
0.033616826 0.014508724 0.0078559518 1.0878025e-38
0.035607383 0.013218284 -0.0008726716 7.3792784e-39
0.041653886 0.010939598 -0.00394696 1.161451e-38
0.035915777 0.0078516006 -0.0085150003 7.1037761e-39
0.041428491 0.0073076487 -0.011104763 7.6544219e-39
0.042398468 0.0032209158 -0.019169241 7.2867226e-39
0.047867194 -0.0003041029 -0.022622645 1.2166948e-38
0.041265771 -0.0011461973 -0.031171441 8.4845441e-39
0.045942172 -0.0011973381 -0.03142482 1.0601074e-38
0.040538236 -0.0019800663 -0.035378844 8.4856231e-39
0.044293776 -0.0013874769 -0.039001584 1.106169e-38
0.028334901 0.00049138069 -0.06390053 7.378928e-39
0.031075969 -0.0018643141 -0.062104821 7.5618717e-39
0.025009915 -0.0027784109 -0.069388866 7.4729341e-39
0.033144161 0.025774717 0.01768899 1.270713e-38
0.03702046 0.0233078 0.0034362078 1.3826473e-38
0.038418636 0.017853856 -0.0012830496 1.0140826e-38
0.046663001 0.01226306 -0.0068855882 1.6309979e-38
0.047055408 0.010863304 -0.012523055 1.3365845e-38
0.049463674 0.0090272427 -0.013523459 1.6676594e-38
0.046781138 0.009175539 -0.017618954 1.069326e-38
0.049918637 0.0071314573 -0.019455135 1.5021397e-38
0.036923245 0.0074561834 -0.062026083 1.2719739e-38
0.032719389 0.0054526329 -0.067220628 7.2849233e-39
0.038949743 0.011727214 -0.06677258 1.2258771e-38
