# .PCD v0.7 - Point Cloud Data file format
VERSION 0.7
FIELDS x y z rgb
SIZE 4 4 4 4
TYPE F F F F
COUNT 1 1 1 1
WIDTH 167
HEIGHT 1
VIEWPOINT 0 0 0 1 0 0 0
POINTS 167
DATA ascii
0.074048571 0.33950573 1.4670001 5.2443147e-39
0.075064689 0.34534827 1.4670001 1.1335054e-38
0.079637155 0.35208005 1.4670001 6.804816e-39
0.06846001 0.36465433 1.4670002 1.2343019e-38
0.068460003 0.37024289 1.4670001 1.2627518e-38
0.065665722 0.39539146 1.4670001 5.236089e-39
0.054711439 0.32826859 1.4729999 9.667844e-39
0.065466672 0.32780096 1.4729999 1.1330228e-38
0.075473718 0.32911029 1.4729999 9.1254896e-39
0.082768574 0.32967144 1.473 7.7271283e-39
0.057517149 0.3380886 1.473 1.8403113e-40
0.066735923 0.3356837 1.473 2.7731276e-40
0.075754292 0.33528286 1.4729999 2.7733098e-40
0.082768574 0.33528289 1.473 2.7914146e-40
0.065502644 0.34542656 1.4729999 1.078005e-38
0.077157155 0.34159571 1.4729999 7.0843134e-39
0.082768574 0.34370002 1.473 1.2264175e-38
0.066285014 0.35457215 1.473 1.3264686e-38
0.074912578 0.35520345 1.4729998 1.0137584e-38
0.056114286 0.36754861 1.473 1.0407297e-38
0.064250872 0.36530399 1.4729998 1.0689651e-38
0.075660773 0.36446226 1.4729998 1.2804756e-38
0.083329722 0.36502346 1.473 1.0983534e-38
0.091185719 0.36614573 1.473 1.217658e-38
0.056394856 0.37400171 1.4729999 6.99854e-39
0.064148858 0.37481797 1.4729998 1.0504098e-38
0.072668016 0.37512401 1.4729999 1.3812704e-38
0.099602863 0.37456286 1.473 6.3525119e-39
0.10240859 0.37456289 1.473 1.0130696e-38
0.057517149 0.38298002 1.473 5.2641066e-39
0.062873527 0.38476551 1.4729999 6.8184997e-39
0.07154572 0.38578576 1.473 6.5451498e-39
0.064531446 0.39520493 1.4729998 3.6802512e-39
0.072748169 0.396207 1.4730002 4.8766238e-39
0.038211435 0.31701338 1.4859999 2.3931431e-39
0.041041907 0.31701338 1.4859999 1.9325279e-39
0.025800887 0.32496047 1.4860001 5.0617563e-39
0.036324453 0.32597649 1.4859999 5.6188453e-39
0.044664968 0.32708666 1.4842001 8.3828785e-39
0.054971434 0.32700956 1.48 9.8576134e-39
0.060609531 0.32560003 1.48 7.2690172e-39
0.074763052 0.32699162 1.4812001 1.0677346e-38
0.084617421 0.32815707 1.4842858 1.2252524e-38
0.094755247 0.32811338 1.485 1.0964341e-38
0.10027905 0.32766956 1.483 6.0970468e-39
0.036796201 0.33541149 1.4859999 2.8512178e-39
0.045596056 0.33554059 1.483 2.5778665e-39
0.05468953 0.33546665 1.4799999 1.6584283e-39
0.061817691 0.33486259 1.4800003 2.2119608e-39
0.087390468 0.33546665 1.4800001 2.3045348e-39
0.094310477 0.33516377 1.4823999 2.2087603e-39
0.10238615 0.33543217 1.4842858 4.1437741e-39
0.036796194 0.34248766 1.4860001 1.9303461e-39
0.044855524 0.34572634 1.4851429 9.2191524e-39
0.05499493 0.34549019 1.4806669 8.4693666e-39
0.060609527 0.34533334 1.4800001 6.6333896e-39
0.087450504 0.34556669 1.4809999 1.3651776e-38
0.095044523 0.3455779 1.4854546 9.3113831e-39
0.10434166 0.3446748 1.4859999 8.1989104e-39
0.11180383 0.34531811 1.4859999 1.3631529e-38
0.045287628 0.35522482 1.4859999 7.1894543e-39
0.055266161 0.35507745 1.4810908 6.3572035e-39
0.061314289 0.35731426 1.48 1.0784361e-38
0.08585456 0.3553372 1.4821818 1.0334945e-38
0.09379366 0.35647351 1.4846668 1.1326007e-38
0.046960182 0.36474544 1.4860001 8.6584284e-39
0.054319531 0.36402285 1.4814998 9.2155763e-39
0.061549205 0.36318731 1.48 7.1030025e-39
0.08798033 0.36414674 1.4820001 1.4196712e-38
0.095195994 0.36461654 1.4820001 1.1147752e-38
0.10157743 0.36531186 1.4842857 1.0402619e-38
0.047056675 0.3746843 1.4860001 1.0500916e-38
0.052716196 0.37577903 1.48 9.5764275e-39
0.076959997 0.37465143 1.48 1.2515574e-38
0.084999889 0.37564555 1.4804285 1.3818494e-38
0.094438106 0.37493336 1.4799999 1.2707444e-38
0.10078096 0.37563813 1.48 7.364852e-39
0.047208957 0.38504282 1.4841999 7.1858235e-39
0.054619048 0.38480002 1.48 4.5175761e-39
0.068361901 0.38409525 1.48 1.0224312e-38
0.075057149 0.38479996 1.48 1.0136072e-38
0.084914304 0.38636002 1.4859999 7.4707453e-39
0.094820961 0.38635996 1.4859999 9.0269279e-39
0.10118954 0.38636002 1.4859999 5.0654179e-39
0.046680648 0.39467299 1.4853332 1.4729777e-39
0.055346161 0.39515188 1.4832728 2.0232816e-39
0.069066674 0.39043811 1.48 1.6563278e-39
0.076584131 0.39372697 1.48 1.7481381e-39
0.084537588 0.39503902 1.4850769 2.2102274e-39
0.094254866 0.39315316 1.4860001 4.3289291e-39
0.10048193 0.39202094 1.4859999 1.207241e-39
0.017051429 0.32681906 1.4920001 5.344827e-39
0.025577145 0.32823998 1.4920001 5.0603102e-39
0.032681908 0.32539815 1.4920001 5.2454077e-39
0.046493337 0.32400796 1.4943335 4.6004138e-39
0.05399619 0.32681906 1.4920001 4.6039829e-39
0.086779773 0.32649022 1.4937501 4.7912595e-39
0.095203832 0.32539812 1.4920001 1.1791987e-38
0.018472381 0.33108193 1.4920001 4.5139971e-39
0.025973771 0.33613306 1.4926367 4.0504995e-39
0.032681908 0.33676577 1.4920001 2.8526583e-39
0.0071380939 0.34405619 1.4990002 1.5684201e-39
0.014723176 0.34351623 1.4966668 4.8802573e-39
0.02525693 0.34497681 1.4925388 8.1963713e-39
0.034417722 0.34675488 1.4934001 2.1172527e-39
0.10515048 0.34813336 1.492 1.1586395e-38
0.026579451 0.3561677 1.4949169 1.2426561e-38
0.03556215 0.35565314 1.4937503 1.74921e-39
0.098045707 0.35523814 1.4920001 1.088592e-38
0.10286114 0.35551703 1.4931668 1.104113e-38
0.026290916 0.36534423 1.4958186 1.2706031e-38
0.035540853 0.36537662 1.4927779 1.196402e-39
0.041207619 0.36518478 1.4920001 7.2957105e-39
0.027940547 0.37505594 1.4990001 5.9804588e-39
0.035557881 0.37409866 1.4935558 1.3811324e-39
0.042154923 0.37513143 1.4920001 7.6475121e-39
0.027124761 0.38974005 1.4990002 6.6268974e-39
0.035631593 0.38485384 1.4966669 2.0247137e-39
0.042344391 0.38450977 1.4920001 6.264949e-39
0.028552383 0.39259526 1.4990002 6.9981854e-39
0.081754282 0.32845145 1.506 8.2690202e-40
0.0071714278 0.33992571 1.506 3.9597486e-39
0.014820956 0.33769459 1.5060002 4.4218071e-39
0.021514289 0.33992571 1.506 4.8824251e-39
0.0071714297 0.3427943 1.506 2.7623054e-39
0.015777148 0.34394175 1.506 3.1325284e-39
0.022470478 0.35618094 1.5060002 1.54737e-38
0.024382861 0.38725719 1.506 2.4813619e-39
0.030120004 0.38582286 1.506 1.9314251e-39
0.09548001 0.31971335 1.5190001 5.5247173e-40
0.085353345 0.32839334 1.5190001 1.287897e-39
0.095255345 0.32532468 1.5155001 4.1502621e-39
-0.0014399998 0.33695999 1.5120001 3.0384971e-39
0.0046800002 0.33588007 1.5120002 3.3165161e-39
0.010800002 0.33480003 1.5120001 4.0522917e-39
-0.0028800033 0.34560004 1.5120002 3.4072656e-39
0.0026742872 0.34539431 1.5120003 4.5128929e-39
-0.0028799996 0.35280001 1.5120001 1.1511806e-38
0.0014400017 0.35280001 1.5120001 1.529032e-38
0.02736 0.38448 1.5120002 6.453638e-40
0.086271442 0.32678574 1.5250002 1.3804373e-39
0.091500014 0.32242858 1.5250001 1.1956663e-39
0.067422859 0.31806001 1.539 1.4711812e-39
0.077682868 0.31805998 1.539 1.2885794e-39
0.084685877 0.31831348 1.5331668 1.2885864e-39
0.091920003 0.31953141 1.5320001 1.4722518e-39
0.039574288 0.32392287 1.539 2.6668574e-39
0.046343178 0.32635432 1.5366669 1.7481296e-39
0.053890292 0.32596803 1.5375999 1.4718959e-39
0.065590724 0.32502222 1.539 1.3797045e-39
0.07533773 0.32538861 1.5389998 1.1960307e-39
0.083604194 0.32508421 1.5347999 1.1045553e-39
0.055697151 0.33271718 1.539 1.6566515e-39
0.06536635 0.33611244 1.5366669 3.95828e-39
0.073774293 0.33516002 1.539 3.3165049e-39
0.080614299 0.33418286 1.539 4.6386903e-40
0.048588574 0.31558031 1.5460001 4.1463062e-39
0.053823713 0.31558028 1.5460002 3.6849665e-39
0.062723428 0.31773978 1.546 1.7477653e-39
0.045643818 0.32318762 1.5460001 1.9303531e-39
0.055950478 0.32245141 1.546 1.1038448e-39
0.062134475 0.32480723 1.5460001 1.1956719e-39
0.072146669 0.32245144 1.5460001 1.2882221e-39
0.057422865 0.33717525 1.5460001 8.3407106e-40
0.0654158 0.33296847 1.5460002 1.7520687e-39
0.075091437 0.33275813 1.5460001 1.6552109e-39
0.055218101 0.32086194 1.567 2.9463267e-39
