# .PCD v0.7 - Point Cloud Data file format
VERSION 0.7
FIELDS x y z rgb
SIZE 4 4 4 4
TYPE F F F F
COUNT 1 1 1 1
WIDTH 260
HEIGHT 1
VIEWPOINT 0 0 0 1 0 0 0
POINTS 260
DATA ascii
-0.28014004 0.18354 1.449 6.531249e-39
-0.27449244 0.18621555 1.4483335 7.4775388e-40
-0.27462006 0.19320002 1.4490004 8.0909656e-39
-0.26082003 0.21666002 1.4490002 5.2628384e-39
-0.25713998 0.21482003 1.4490002 7.1020805e-39
-0.29117996 0.23874006 1.4490002 6.524384e-39
-0.28351331 0.23598 1.4490002 9.4782006e-39
-0.27462 0.23736 1.4490001 1.3061178e-38
-0.29228401 0.24481201 1.4490002 1.1306974e-38
-0.28455603 0.24481198 1.4490004 1.4359835e-38
-0.27324003 0.24150005 1.4490001 1.4918055e-38
-0.31325996 0.26279148 1.4490002 9.4795837e-39
-0.28407145 0.18845718 1.4550002 1.1518326e-38
-0.28296286 0.19483143 1.455 1.1496756e-38
-0.27298576 0.19677143 1.4550002 1.1401697e-38
-0.26744288 0.19677144 1.455 1.4714232e-38
-0.28506124 0.20567961 1.4550002 9.649948e-39
-0.2747674 0.2044919 1.4550003 1.1209006e-38
-0.26744288 0.20370004 1.4550002 1.3048247e-38
-0.30070007 0.21755716 1.4550002 9.6719288e-39
-0.29476124 0.21557759 1.4550002 7.1877054e-39
-0.28583515 0.21503767 1.4550002 6.3518351e-39
-0.27390951 0.21570952 1.455 6.7199086e-39
-0.26559526 0.21524765 1.4550002 7.6444194e-39
-0.25635713 0.21755716 1.455 6.0007706e-39
-0.30070001 0.22448573 1.4550002 3.970624e-39
-0.29515719 0.22448571 1.4550002 3.9684815e-39
-0.28545719 0.22448571 1.455 3.7840916e-39
-0.27409434 0.22476284 1.4550002 4.0617589e-39
-0.26467144 0.22448571 1.4550002 4.2472446e-39
-0.25774288 0.22448573 1.455 4.9848236e-39
-0.30381787 0.23661071 1.4550002 3.4142161e-39
-0.29540914 0.23519352 1.4550002 3.1365516e-39
-0.28644699 0.23378983 1.4550002 4.8799799e-39
-0.27417356 0.23517555 1.4550002 9.2923759e-39
-0.26467144 0.23557141 1.4550002 8.4630019e-39
-0.25820476 0.23464763 1.4550002 5.6186491e-39
-0.31386435 0.24734999 1.4550002 6.7242092e-39
-0.30485719 0.24527144 1.4550002 3.3213016e-39
-0.29723573 0.24457857 1.455 6.7123654e-39
-0.28407145 0.24527144 1.4550002 1.3800549e-38
-0.27437145 0.24582571 1.455 1.4641115e-38
-0.26536423 0.24319288 1.455 1.4435824e-38
-0.25912857 0.24250001 1.455 1.1762187e-38
-0.32010007 0.25635713 1.4550002 9.2959057e-39
-0.31455714 0.25497144 1.4550002 9.1144264e-39
-0.30485713 0.25497139 1.455 4.3289529e-39
-0.29515713 0.25497144 1.4550002 1.1120401e-38
-0.28554958 0.25524858 1.4550002 1.3805953e-38
-0.27437145 0.25497144 1.4550002 1.4644373e-38
-0.32009995 0.26190001 1.4549999 8.3735767e-39
-0.3117857 0.26744282 1.455 9.1126103e-39
-0.3058964 0.26363215 1.4550002 6.0763342e-39
-0.29515713 0.26467144 1.455 1.2332986e-38
-0.28545719 0.26467139 1.4550002 1.5014571e-38
-0.27575713 0.26467144 1.455 1.4538867e-38
-0.3117857 0.27159998 1.4549999 8.6494769e-39
-0.3071667 0.27390948 1.4550002 7.0864826e-39
-0.29411787 0.27506432 1.455 6.7191757e-39
-0.28573436 0.27409428 1.4550002 1.2975481e-38
-0.27668101 0.27252382 1.4550002 1.2220685e-38
-0.29404861 0.28407142 1.455 2.579024e-39
-0.28961426 0.2826857 1.455 3.862214e-39
-0.30624288 0.31732863 1.455 3.5967772e-39
-0.29080862 0.1989743 1.4610002 1.2053496e-38
-0.28663439 0.19688714 1.4610002 1.232862e-38
-0.29080856 0.20175713 1.4610003 1.0765288e-38
-0.28802574 0.20175715 1.4610002 1.0562532e-38
-0.30472291 0.21845432 1.4610002 1.1695164e-38
-0.28246003 0.21288861 1.4610002 9.5566888e-39
-0.27522457 0.21177544 1.4610002 1.0751289e-38
-0.26854569 0.21010572 1.4610002 1.2039849e-38
-0.31092572 0.22866005 1.4640001 7.092647e-39
-0.30611432 0.22541143 1.4610002 5.9927804e-39
-0.27967715 0.22123715 1.4610003 4.4305442e-39
-0.25300473 0.22546132 1.4623334 5.6309175e-39
-0.24548782 0.22839306 1.4610002 4.8976797e-39
-0.31307149 0.23515141 1.4610002 6.6313003e-39
-0.30611438 0.23376001 1.4610001 3.4152979e-39
-0.25383639 0.235549 1.4610002 4.4291205e-39
-0.24497382 0.23523287 1.4615002 3.8810054e-39
-0.23891146 0.23891142 1.467 6.4585286e-39
-0.32142001 0.24906571 1.4610002 1.0403687e-38
-0.31604123 0.24364293 1.4618573 7.367415e-39
-0.30611438 0.24071717 1.4610002 3.5978885e-39
-0.26377511 0.24787307 1.4610002 1.4802088e-38
-0.25456548 0.24444284 1.462091 7.3635236e-39
-0.24482431 0.24389859 1.4620001 3.972471e-39
-0.23740526 0.24465886 1.4646002 6.4585033e-39
-0.32142001 0.25184858 1.4610002 1.0401529e-38
-0.26437145 0.25463146 1.4610004 1.6667588e-38
-0.25443983 0.25401253 1.4660771 1.0572717e-38
-0.2443877 0.25369942 1.4663334 4.0657512e-39
-0.23797999 0.25195143 1.4670002 5.5405001e-39
-0.30402714 0.26785004 1.4610002 5.4295327e-39
-0.27132863 0.2657629 1.4610003 1.6039904e-38
-0.2643714 0.26437142 1.4610004 1.6943468e-38
-0.25468069 0.26476371 1.4637697 9.7454731e-39
-0.24412175 0.26451084 1.4664001 3.9746107e-39
-0.23826002 0.26333615 1.4630002 2.5797344e-39
-0.30472285 0.27578112 1.4610004 5.1561772e-39
-0.29846144 0.27411139 1.4610002 6.4415126e-39
-0.28246003 0.27967715 1.4610001 1.2704975e-38
-0.27411145 0.27661607 1.4610004 1.0954058e-38
-0.26443821 0.27557254 1.4613751 1.1043364e-38
-0.25457102 0.27499288 1.4620003 5.4353453e-39
-0.24539293 0.27606714 1.4640001 4.0653686e-39
-0.30486315 0.28537431 1.4616668 5.2512441e-39
-0.29637432 0.2866343 1.4610003 2.6730119e-39
-0.28524292 0.28524292 1.4610003 4.7895681e-39
-0.27550298 0.28524286 1.4610003 7.2874639e-39
-0.26437145 0.28524294 1.4610004 5.4406772e-39
-0.25343025 0.28511393 1.4644291 4.4302093e-39
-0.24382295 0.28482574 1.4646003 4.5266971e-39
-0.30520332 0.29482469 1.462091 4.3350597e-39
-0.29458535 0.29498291 1.4610004 5.0661284e-39
-0.28524292 0.29498291 1.4610004 7.1808657e-39
-0.27550292 0.29498291 1.4610004 8.4759219e-39
-0.2643714 0.29498291 1.4610004 7.3710219e-39
-0.25419676 0.29476243 1.4646927 4.1532525e-39
-0.2439412 0.29312056 1.4670001 5.0813408e-39
-0.31191605 0.30578229 1.4634002 7.0029639e-39
-0.30418831 0.30393428 1.4620911 3.3201931e-39
-0.29498285 0.30472288 1.4610004 5.8087311e-39
-0.28524286 0.30472285 1.4610004 9.7677075e-39
-0.27550286 0.30472288 1.4610006 8.8436409e-39
-0.26437145 0.30472285 1.4610004 7.4635735e-39
-0.2539041 0.30472896 1.4648575 4.7968072e-39
-0.24519862 0.30807 1.467 5.1713911e-39
-0.31028861 0.31446284 1.4610001 4.8846448e-39
-0.30446988 0.3140834 1.4610004 2.8595751e-39
-0.29498285 0.31446281 1.4610004 4.6969983e-39
-0.28461188 0.31504655 1.4618574 6.4548235e-39
-0.27498615 0.3141588 1.4614289 4.7009724e-39
-0.2647118 0.31487107 1.4628752 7.279562e-39
-0.25437886 0.31478986 1.4652859 7.1927936e-39
-0.24543147 0.31389147 1.4670002 5.1721086e-39
-0.23891149 0.31156284 1.467 5.3597452e-39
-0.31164479 0.32604003 1.4630002 4.2396201e-39
-0.30472285 0.32559428 1.4610004 3.3194575e-39
-0.29498291 0.32559434 1.4610006 7.0079735e-39
-0.28435946 0.32558233 1.4622005 1.1982886e-38
-0.27494913 0.32542515 1.464 1.2347377e-38
-0.26545709 0.32553434 1.4670002 1.4192759e-38
-0.25847149 0.32273999 1.4670002 7.4815731e-39
-0.31384635 0.33560282 1.4646002 4.5115266e-39
-0.30472285 0.33533427 1.4610002 6.4537375e-39
-0.29498297 0.3353343 1.4610004 1.3084921e-38
-0.28443974 0.33507663 1.4620911 1.2443107e-38
-0.27535623 0.33521691 1.4642311 1.3273644e-38
-0.26545709 0.33531427 1.4670002 1.7602555e-38
-0.25847149 0.33950573 1.4670002 1.6577575e-38
-0.31296003 0.34369719 1.4670002 4.0530694e-39
-0.30492806 0.34520909 1.463182 3.6925714e-39
-0.29498285 0.34507424 1.4610004 1.3272233e-38
-0.28449512 0.34478039 1.4622861 1.1982552e-38
-0.2752372 0.34509432 1.467 1.1613794e-38
-0.26533014 0.34484029 1.467 1.3820717e-38
-0.25847143 0.34509429 1.4670001 1.7781457e-38
-0.3115629 0.35068285 1.4670001 5.8869095e-39
-0.30411148 0.35596094 1.4670002 9.3110566e-39
-0.29438686 0.3548286 1.4622003 7.1869978e-39
-0.28444982 0.35526657 1.4661434 6.4519481e-39
-0.27523708 0.35068285 1.467 7.3692114e-39
-0.31577426 0.36770457 1.4658003 1.2247611e-38
-0.30484551 0.36451867 1.4664547 8.0235449e-39
-0.29545683 0.36401242 1.4656668 6.8214368e-39
-0.28781146 0.3632572 1.4670002 6.6374015e-39
-0.27244282 0.36605141 1.4670001 6.4602185e-39
-0.26406002 0.36744857 1.4670001 7.4661e-39
-0.31378323 0.37421942 1.4643334 1.1046207e-38
-0.30469131 0.37413701 1.4662006 4.5190712e-39
-0.29544753 0.37518361 1.4664547 5.7165354e-39
-0.28455144 0.37676287 1.467 5.9934909e-39
-0.27430576 0.3739686 1.4670001 6.455925e-39
-0.26660031 0.37329113 1.4670002 6.8254249e-39
-0.23611717 0.37164 1.4670001 5.3586228e-39
-0.30317998 0.38142005 1.4670001 4.7945721e-39
-0.29519641 0.38541189 1.4670004 4.6076683e-39
-0.28501713 0.38700867 1.4670001 4.7913547e-39
-0.30178285 0.39539146 1.4670001 3.4102378e-39
-0.29479718 0.39259714 1.4670002 2.951405e-39
-0.28501719 0.3925972 1.467 3.50136e-39
-0.25111139 0.25812572 1.4729999 6.7253933e-39
-0.24409716 0.25952858 1.473 4.0682595e-39
-0.23848571 0.25602138 1.473 4.8904279e-39
-0.25111145 0.26514003 1.473 5.6251666e-39
-0.25111145 0.27075142 1.473 4.4356169e-39
-0.24690287 0.27215433 1.473 4.3434185e-39
-0.24690287 0.28478003 1.473 4.8962363e-39
-0.24620141 0.29810718 1.473 4.8962433e-39
-0.25111145 0.30161431 1.4729999 4.7093339e-39
-0.2451493 0.30406928 1.473 5.4472521e-39
-0.24362953 0.31657809 1.4729999 5.5405379e-39
-0.23988859 0.31704575 1.4729999 5.5441393e-39
-0.25456464 0.32621825 1.4729999 1.0044003e-38
-0.24606119 0.3249017 1.4729999 4.8955259e-39
-0.23848571 0.32406002 1.473 5.6355824e-39
-0.25784516 0.33472177 1.473 1.5114007e-38
-0.31283712 0.34931144 1.4729999 4.8720639e-39
-0.26794571 0.34931141 1.473 1.1056672e-38
-0.25578767 0.34510288 1.4729999 1.6024387e-38
-0.31143433 0.35632572 1.473 5.3387706e-39
-0.27573937 0.35492289 1.473 6.4537361e-39
-0.26478928 0.35457218 1.4729999 1.5759294e-38
-0.25570267 0.35517791 1.4729998 1.6399979e-38
-0.24830575 0.3577286 1.4729999 4.2249695e-39
-0.23427714 0.3577286 1.473 1.0232e-38
-0.31283718 0.36334002 1.4729999 6.9910892e-39
-0.2917943 0.36895144 1.473 5.0758478e-39
-0.28397834 0.36654654 1.4730002 6.6392162e-39
-0.27516037 0.364342 1.4729998 6.7360768e-39
-0.26514 0.36436024 1.4729999 9.8649296e-39
-0.25592136 0.36454242 1.4729999 6.3597707e-39
-0.24830572 0.36334002 1.473 5.1620094e-39
-0.237644 0.36558458 1.4729999 5.1746127e-39
-0.31564283 0.37175715 1.4729999 1.1412836e-38
-0.29249573 0.37245861 1.473 5.1684021e-39
-0.28534114 0.37287948 1.473 6.2722357e-39
-0.27823335 0.37269241 1.473 5.9052693e-39
-0.26233429 0.37596571 1.473 7.7466652e-39
-0.25752461 0.37416211 1.4730002 7.287859e-39
-0.23918717 0.37526432 1.473 5.9107484e-39
-0.31323808 0.38338083 1.473 7.2709033e-39
-0.30441993 0.38718861 1.4729999 5.631499e-39
-0.29399878 0.38738909 1.4730002 4.792061e-39
-0.28477997 0.3853181 1.473 5.5296344e-39
-0.27524054 0.38466346 1.4729999 7.5561418e-39
-0.2653951 0.3840003 1.4729999 7.0984147e-39
-0.23820953 0.31996191 1.4799999 5.3607528e-39
-0.24196826 0.3265397 1.4799999 5.7274459e-39
-0.23651813 0.32560003 1.4799999 5.4421626e-39
-0.25472111 0.33727893 1.48 7.0094855e-39
-0.24485444 0.33607084 1.4799998 5.0813577e-39
-0.2370014 0.33486259 1.48 6.639638e-39
-0.25343245 0.34589717 1.48 1.3633451e-38
-0.24574859 0.34603333 1.483 6.4599607e-39
-0.23606919 0.34654045 1.4817144 8.0203878e-39
-0.22975241 0.34533337 1.4799999 8.3771654e-39
-0.3231461 0.35711178 1.4859999 1.5013442e-38
-0.3177067 0.35491809 1.48 1.0217538e-38
-0.2720381 0.35801902 1.48 7.7480511e-39
-0.2692191 0.35942858 1.48 1.2813725e-38
-0.25230479 0.35238099 1.48 1.5204338e-38
-0.2453685 0.35549179 1.4823999 6.4592376e-39
-0.23654969 0.35490057 1.4833333 9.1281745e-39
-0.32410794 0.3644743 1.4849091 1.5011998e-38
-0.31808257 0.36506671 1.4799999 1.1326023e-38
-0.25230473 0.36506668 1.48 5.2455282e-39
-0.24384765 0.36506668 1.48 6.000793e-39
-0.25324452 0.37587303 1.48 6.5506541e-39
-0.24666668 0.37493333 1.4799999 6.0000658e-39
-0.3171429 0.38761908 1.4799999 1.3907824e-38
-0.26076192 0.38480005 1.4799999 7.5608418e-39
-0.25512379 0.38480002 1.48 7.0094687e-39
-0.24639837 0.3849861 1.4818 5.9982735e-39
-0.23917527 0.38352954 1.4860001 6.5517584e-39
-0.26295459 0.39419684 1.4800001 5.4385472e-39
-0.24710734 0.39396697 1.4826667 5.7242033e-39
-0.24298294 0.38791996 1.4920002 6.7380021e-39
