# .PCD v0.7 - Point Cloud Data file format
VERSION 0.7
FIELDS x y z rgb
SIZE 4 4 4 4
TYPE F F F F
COUNT 1 1 1 1
WIDTH 112
HEIGHT 1
VIEWPOINT 0 0 0 1 0 0 0
POINTS 112
DATA ascii
0.057091415 0.41553149 1.2359999 1.1781167e-38
0.062388599 0.41582578 1.2359999 1.086068e-38
0.056738317 0.42212346 1.2359999 9.8508255e-39
0.064742863 0.42464155 1.2359999 1.2437761e-38
0.067802876 0.39849049 1.2490001 1.8144109e-38
0.073750496 0.39849049 1.2490001 1.8234876e-38
0.045471609 0.40731323 1.2475456 1.0214259e-38
0.054522455 0.40654576 1.2445501 1.3443959e-38
0.064725906 0.40655822 1.2462941 1.6577156e-38
0.074411362 0.40470243 1.2490003 1.7406562e-38
0.082077146 0.4080067 1.2490001 1.6300945e-38
0.039254278 0.41514379 1.2490001 1.1139387e-38
0.044852674 0.4147473 1.2452942 1.1599664e-38
0.05333969 0.41530168 1.2399998 1.1139395e-38
0.06649524 0.41389415 1.2412498 1.3627295e-38
0.076070726 0.4148092 1.2480003 1.7038528e-38
0.082077175 0.41633338 1.2490001 1.5843244e-38
0.039254308 0.42584953 1.2490001 7.1804467e-39
0.045135498 0.42525458 1.2472501 7.8265224e-39
0.053497374 0.42603391 1.2422222 7.9169131e-39
0.075697333 0.42491162 1.2452352 1.4373529e-38
0.082077146 0.42466003 1.2490001 1.3637421e-38
0.036795735 0.40865934 1.2564999 9.1068509e-39
0.045473367 0.40447095 1.2564999 1.6669719e-38
0.055308402 0.40295756 1.2569997 1.7494442e-38
0.063367933 0.40293148 1.2554286 1.7775332e-38
0.084416032 0.40442237 1.2542777 1.6760848e-38
0.092326701 0.40887526 1.2589999 1.7870765e-38
0.028111011 0.4158031 1.2589998 1.1414921e-38
0.034480214 0.41553122 1.2551537 1.1232311e-38
0.087063283 0.41516301 1.2547143 1.6027262e-38
0.0921067 0.4150725 1.256 1.7318684e-38
0.029017001 0.42278421 1.2590001 7.6410521e-39
0.034863085 0.42499465 1.2544545 7.1807984e-39
0.086815387 0.42525768 1.2539999 1.3177156e-38
0.092204452 0.42510161 1.2573334 1.61234e-38
0.062670022 0.39893386 1.2655001 1.7958999e-38
0.018114299 0.40938291 1.2679999 1.0308251e-38
0.024624497 0.4072893 1.2674999 9.9398318e-39
0.034606218 0.40599006 1.2655003 1.4364832e-38
0.045799881 0.40294975 1.2655001 1.7584104e-38
0.055284798 0.40248868 1.2658571 1.7679191e-38
0.06222859 0.40188193 1.2646667 1.805084e-38
0.016604751 0.41632667 1.268 1.067988e-38
0.023180485 0.41413179 1.2633337 1.0956083e-38
0.030071437 0.41017434 1.2629999 9.7511091e-39
0.055832863 0.39812717 1.2745001 1.7865729e-38
-0.0012161732 0.40985629 1.2769998 1.2335785e-38
0.0060809851 0.4088833 1.2769998 1.0952501e-38
0.015048891 0.40710986 1.2745003 1.0765977e-38
0.02342099 0.40421334 1.2720002 1.5470105e-38
0.034652293 0.40302944 1.2742223 1.7861051e-38
0.044599891 0.40245354 1.2755713 1.7309321e-38
0.055080771 0.40112686 1.274 1.7960445e-38
-0.0020262003 0.41647422 1.2761667 8.7448801e-39
0.005027622 0.41558331 1.274857 9.8519241e-39
0.012841135 0.41382405 1.2720001 1.1048658e-38
-0.035545707 0.39835721 1.2869999 1.6295855e-38
0.026965708 0.39835721 1.2869999 1.6847624e-38
0.03398478 0.3973819 1.285077 1.7120971e-38
0.043997556 0.39719409 1.2832497 1.7127439e-38
0.050669521 0.39680958 1.2819999 1.7312177e-38
-0.034319982 0.40080866 1.2869999 1.4548438e-38
-0.012992561 0.40718231 1.2869999 1.1875178e-38
-0.004408747 0.40703642 1.2849998 1.1136158e-38
0.0044800043 0.40561739 1.2828333 1.122841e-38
0.014697075 0.40409014 1.28575 1.5654843e-38
0.024487704 0.40286684 1.2857498 1.7402598e-38
0.034186661 0.40169334 1.2819999 1.6930122e-38
0.045175254 0.40230381 1.2819998 1.7497296e-38
0.05005905 0.40169337 1.2819999 1.795971e-38
-0.013290972 0.4146373 1.2866154 9.6675371e-39
-0.0064848363 0.41414827 1.282769 1.0127422e-38
0.0036628544 0.41390291 1.2819999 1.1416362e-38
-0.03159745 0.3992883 1.2926667 1.1407364e-38
-0.02427429 0.39867434 1.2959999 1.3534008e-38
0.017437279 0.39752686 1.2945715 1.6847632e-38
0.023770809 0.39590669 1.2910001 1.6567448e-38
-0.033213526 0.40605465 1.2915554 1.3073334e-38
-0.024560124 0.4053449 1.292842 1.1781904e-38
-0.015189111 0.40475237 1.2930832 1.1870518e-38
-0.0047909915 0.40356502 1.2932222 1.2614225e-38
0.0052343905 0.40263587 1.2928748 1.6670788e-38
0.012319028 0.40159857 1.2934998 1.7493694e-38
-0.032091424 0.41472006 1.2959999 8.2774098e-39
-0.024521828 0.41554782 1.2916667 7.9169215e-39
-0.018442839 0.41557908 1.291 9.0221845e-39
-0.030976191 0.39773428 1.3010001 1.2705317e-38
-0.024983168 0.39709496 1.3043333 1.703849e-38
-0.014925718 0.39926288 1.3059999 1.888057e-38
0.008084774 0.39739719 1.3059999 1.6941977e-38
0.013249844 0.39626741 1.3043334 1.6381629e-38
-0.02602002 0.40145144 1.3010001 1.1321684e-38
-0.015399545 0.40127444 1.3010001 1.437022e-38
-0.0051440597 0.40215334 1.3038572 1.7684581e-38
0.004550308 0.40180749 1.3035001 1.7957194e-38
0.012390465 0.40021241 1.3009999 1.6473083e-38
-0.03665784 0.41565788 1.3047501 1.3532182e-38
-0.022890449 0.39496478 1.3110001 1.7589859e-38
-0.014584124 0.39608824 1.3126664 1.7490102e-38
-0.005006969 0.39680031 1.3143332 1.7029854e-38
0.0044310987 0.39566159 1.3128181 1.638485e-38
0.013734311 0.39704579 1.3109999 1.6479211e-38
-0.004994303 0.4007915 1.311 1.7774598e-38
0.0024971664 0.4007915 1.311 1.7307492e-38
-0.038705692 0.41827148 1.3110001 1.5472972e-38
-0.021387607 0.395042 1.3210001 1.7311477e-38
-0.015748173 0.3933956 1.3228751 1.6939828e-38
-0.0050418973 0.39326623 1.3235 1.6479214e-38
0.0020984113 0.39343882 1.3226666 1.7127456e-38
-0.015211403 0.39169431 1.3309999 1.7129607e-38
-0.0050704479 0.39169431 1.3310001 1.6945574e-38
